-10.312280 56.042965 392.566284
-10.264884 54.816883 394.366302
-10.238728 57.594006 395.884888
-10.256239 57.830181 395.054779
-10.154273 54.821178 400.371857
-10.107703 55.922382 399.325043
-10.169606 58.042500 391.697235
-10.091028 57.430721 396.422577
-10.129057 58.168690 392.944641
-9.988153 54.422241 394.795288
-10.031514 56.723194 391.891388
-10.002467 58.048428 394.268250
-9.867116 56.646797 398.784637
-9.865317 55.715908 393.704926
-9.799989 57.336315 397.471527
-9.837635 58.093513 394.831146
-9.786934 58.396057 393.749512
-9.792830 58.392056 392.045380
-9.736917 57.785641 391.059174
-9.666738 57.771870 396.521820
-9.645656 55.494781 394.187866
-9.598357 55.674725 400.425110
-9.628963 58.077801 395.619904
-9.566689 56.235157 393.310883
-9.491881 55.239265 394.780334
-9.443273 55.324001 400.907593
-9.480346 58.117043 391.549591
-9.387378 56.465950 399.728119
-9.377090 54.735596 401.357574
-9.394611 58.397194 394.865204
-9.310242 54.716652 395.213684
-9.292796 56.157936 400.227539
-9.292918 57.364143 398.313049
-9.352267 58.674408 392.359344
-9.337327 56.814400 392.386566
-9.332068 58.630306 393.140961
-9.263967 58.103687 396.261810
-9.298034 57.455799 391.540771
-9.194385 55.614094 394.531769
-9.186039 56.564686 393.063263
-9.092796 55.221107 401.368347
-9.145444 58.651569 394.153717
-9.100555 58.388973 395.366913
-9.072381 58.073730 397.120667
-9.017734 57.028126 399.346649
-8.895362 54.978706 401.896576
-8.938094 58.444954 395.924591
-8.816801 56.047749 401.002167
-8.849319 57.282543 392.309875
-8.836717 58.844692 393.420868
-8.724051 54.386688 402.252258
-8.797298 57.834126 391.502899
-8.697502 54.708778 395.853607
-8.696124 56.100353 394.423950
-8.706889 57.062866 392.866425
-8.661553 58.299877 396.663086
-8.599805 56.712646 400.341125
-8.646899 56.647488 393.775818
-8.583460 57.993374 397.928680
-8.624376 58.304165 391.664886
-8.523280 54.443237 396.332092
-8.502093 55.413612 401.812805
-8.521215 55.445942 395.413788
-8.476398 58.861977 394.782379
-8.398979 57.692493 398.863098
-8.315516 57.721558 391.975037
-8.310835 59.072353 393.364349
-8.212928 54.905560 396.083008
-8.229789 58.684181 396.413696
-8.234355 59.076893 392.474365
-8.183958 58.383472 397.235657
-8.210307 57.335072 392.776215
-8.056691 56.465939 401.166473
-8.012674 57.443768 399.900604
-8.097485 58.552032 391.778259
-8.064034 58.826088 395.820984
-8.033607 55.760792 395.293457
-8.030818 57.009762 393.775818
-7.896544 54.899471 402.497986
-7.871734 57.187691 400.409515
-7.931716 56.549374 394.560913
-7.898624 59.216766 394.025879
-7.824667 58.042431 391.898285
-7.710087 56.952847 400.974335
-7.775135 59.297127 392.817383
-7.681669 58.265957 398.365082
-7.671262 55.218822 396.174133
-7.676807 58.591492 397.512482
-7.619259 56.023567 401.861969
-7.662184 59.055641 395.370880
-7.664907 58.834560 392.045929
-7.648362 57.712036 392.936279
-7.566751 55.723152 395.740356
-7.493870 54.821022 396.671173
-7.540241 59.067322 396.145111
-7.482492 57.877075 399.469177
-7.532884 59.265072 394.724457
-7.492504 59.495831 393.307434
-7.273345 55.712368 402.466278
-7.304024 59.155029 392.348114
-7.301607 58.106720 392.496338
-7.189645 56.544033 401.737122
-7.137926 55.006630 402.977783
-7.130267 57.165993 400.989899
-7.153234 55.623390 396.266693
-7.209668 59.450916 394.007050
-7.151474 58.794502 397.493591
-7.167682 57.587383 393.613068
-7.130511 57.252277 394.075775
-7.026779 57.619488 400.381073
-7.047693 58.527187 398.405243
-7.078949 59.510876 392.811737
-7.035965 59.328564 395.516754
-7.009521 56.601349 395.188171
-6.972768 59.113106 396.704010
-6.957099 59.205086 396.070648
-6.881702 54.428753 397.307159
-6.849053 54.882771 396.970947
-6.919782 59.439709 394.858307
-6.832687 58.276031 399.330048
-6.816868 57.997345 393.253113
-6.797967 57.074257 394.520599
-6.799699 58.812691 392.137909
-6.686208 56.162647 402.423523
-6.756898 59.604683 393.540009
-6.721036 58.355709 392.593079
-6.657323 55.998482 396.112152
-6.607540 57.254696 401.250793
-6.612885 55.585567 396.514679
-6.596709 58.981495 397.463348
-6.433549 58.713905 398.416870
-6.371581 57.858479 400.422791
-6.311112 54.712440 403.517792
-6.338869 57.015388 401.835907
-6.253253 55.672871 403.009125
-6.339166 56.369709 395.782837
-6.328929 59.631142 394.802582
-6.227928 58.377956 399.450165
-6.281430 59.308178 392.470306
-6.275217 59.756538 393.968323
-6.187557 56.561550 402.325653
-6.181341 59.006134 397.932220
-6.236520 57.320129 394.670990
-6.166409 57.559887 401.081879
-6.202949 57.777142 394.097046
-6.064821 55.282532 397.157379
-6.062336 59.409084 396.739960
-6.071148 56.134594 396.356049
-6.014856 58.135078 393.560394
-5.965157 59.553753 395.754242
-5.863750 57.276028 401.566711
-5.846759 58.172058 400.277191
-5.905517 56.976521 395.424133
-5.772800 57.018349 402.128998
-5.801037 58.600636 392.626801
-5.805062 59.807781 394.685089
-5.739004 59.885662 393.824005
-5.637907 58.747986 399.125092
-5.626243 58.488338 399.623627
-5.629847 59.723083 395.282806
-5.519605 56.488136 402.608826
-5.472374 55.957710 403.052795
-5.499468 59.263927 397.464691
-5.511724 59.627270 392.997772
-5.493087 56.629757 396.051239
-5.451534 56.240479 396.468079
-5.374846 58.947323 398.359833
-5.377172 55.598476 397.206329
-5.291810 54.821960 403.951263
-5.290142 57.945339 400.813080
-5.249524 55.221596 397.617065
-5.243748 57.254292 401.882416
-5.213284 54.783520 398.020111
-5.291951 59.006172 392.570740
-5.285644 58.647583 393.161682
-5.194645 59.886189 394.888916
-5.119209 57.717323 401.285126
-5.173353 58.045712 394.310883
-5.088399 59.327137 398.011871
-5.061359 58.859951 398.988098
-5.055769 56.897320 402.379120
-5.042645 58.609840 399.628540
-5.097692 57.714752 394.820801
-5.087416 58.324886 393.802948
-5.051289 59.802326 395.891937
-5.031423 59.590450 396.879852
-4.968433 55.598492 403.476471
-5.080242 59.964844 393.703857
-4.945867 58.186035 400.408844
-4.974218 59.987324 394.382324
-4.812814 54.573971 404.172333
-4.925586 59.511475 392.851227
-4.835014 56.456356 402.806976
-4.847105 56.245575 396.702484
-4.834030 57.218777 395.697357
-4.669926 55.759365 397.135712
-4.667552 58.706356 393.405731
-4.592918 55.370422 397.714874
-4.588459 57.424286 401.918121
-4.545014 59.494625 397.955261
-4.597453 58.217670 394.099121
-4.482491 58.988136 399.159515
-4.424895 58.722912 399.656097
-4.501170 60.050167 393.939606
-4.408094 56.882595 402.542206
-4.465590 59.078278 392.816284
-4.356931 55.489491 403.625458
-4.409647 59.659779 396.947144
-4.322197 54.924122 403.985107
-4.263543 54.683136 398.279480
-4.276372 58.221752 400.815247
-4.173474 56.382000 402.959137
-4.247503 60.033215 395.043060
-4.204452 57.844604 401.315674
-4.214511 56.562256 396.578094
-4.203075 59.911842 395.655853
-4.042241 55.916058 403.342255
-4.151392 59.758095 393.407379
-4.028301 59.639221 397.516083
-4.007742 59.194080 398.711761
-4.030624 57.508556 401.819580
-4.061812 57.681652 395.169159
-4.004624 55.843822 397.354248
-4.044702 60.176819 394.352844
-4.042011 58.207516 394.459259
-3.937966 55.330303 397.803558
-3.873677 57.230724 402.301941
-3.789505 54.632862 404.228851
-3.843737 58.784542 399.634125
-3.801650 57.195992 395.920441
-3.771969 59.904305 396.234589
-3.697783 54.911739 398.298340
-3.671928 55.327137 403.818024
-3.696975 59.420685 398.149719
-3.617027 59.747730 396.987885
-3.618420 59.062386 392.990692
-3.543667 60.135590 394.678802
-3.525089 58.600033 393.834625
-3.464715 57.852722 401.311249
-3.445852 58.412239 400.556641
-3.353448 56.403503 403.045593
-3.346220 59.171467 398.911346
-3.400101 57.661324 395.517700
-3.356942 57.026886 396.308258
-3.270535 59.893917 396.576935
-3.193192 54.355129 398.864105
-3.171645 56.960743 402.482635
-3.200521 60.133846 394.228027
-3.204801 58.289257 394.484619
-3.130559 55.963268 397.467163
-3.166701 59.801311 393.471710
-3.045522 54.720551 404.253632
-3.040147 59.620632 397.610291
-3.017495 58.896118 399.535767
-3.038348 56.730183 396.664520
-3.035166 60.044552 395.415619
-2.954950 55.247620 398.156494
-2.825611 55.710560 403.602478
-2.910485 57.794422 401.519806
-2.782337 57.130543 396.227570
-2.723928 58.607075 400.107758
-2.656689 59.327087 398.340057
-2.677694 59.889984 396.498871
-2.554726 55.052876 404.032806
-2.650567 58.983620 393.252197
-2.563274 59.755489 397.149384
-2.502653 55.039734 398.479767
-2.552716 59.511421 393.338104
-2.383608 54.401485 398.903137
-2.468073 58.074154 400.956604
-2.495512 60.114925 394.305725
-2.411687 57.379280 401.979889
-2.428997 58.687538 393.664978
-2.316079 59.074615 399.097504
-2.278935 57.770191 401.566010
-2.297600 58.077827 394.953857
-2.218297 56.596577 402.817200
-2.225619 56.181709 397.463684
-2.152130 55.363979 398.173004
-2.161322 59.564800 397.845825
-2.154950 57.132122 396.282776
-2.130726 59.828674 393.799927
-2.122348 58.466713 394.108734
-2.047572 57.062061 402.410980
-2.092860 57.635944 395.515137
-1.948417 55.052917 404.033234
-2.048464 60.066505 394.859680
-1.972636 59.890022 396.571991
-1.872730 54.825928 398.631989
-1.843908 55.799049 403.441315
-1.869902 55.788837 397.848236
-1.858908 59.705791 397.204803
-1.890278 56.740978 396.802948
-1.764823 58.995544 399.276154
-1.777896 58.516338 400.318451
-1.714795 59.971962 395.998627
-1.699783 58.741272 399.800415
-1.615832 56.263222 403.105835
-1.575659 59.483925 397.855927
-1.585648 57.725014 401.446259
-1.603111 59.121334 393.294373
-1.384097 59.711903 393.878448
-1.308302 56.722515 402.497955
-1.217599 54.701488 404.053955
-1.259744 55.061470 398.454010
-1.246078 55.530342 398.065521
-1.200091 59.112591 399.092255
-1.257868 58.437344 394.122345
-1.101524 55.262661 403.784760
-1.177753 57.289349 401.855316
-1.152218 58.784657 399.601105
-1.162313 59.977711 394.298676
-1.109424 59.883358 396.141815
-1.164104 58.786896 393.445557
-1.119270 60.066723 394.841278
-1.064676 59.279568 398.566956
-1.090917 60.033703 395.576843
-1.134521 58.193233 394.680054
-1.051176 58.162697 400.672760
-1.032634 58.494453 400.125519
-0.997582 59.748363 397.044250
-0.994940 57.709713 395.388855
-0.956013 57.819710 401.192932
-0.935514 55.941242 397.794281
-0.887002 59.461132 398.010498
-0.886459 57.264595 396.075165
-0.866992 56.680958 396.935181
-0.723728 55.716003 403.269958
-0.708738 54.506012 398.921692
-0.618480 58.992916 399.051514
-0.580833 57.516296 401.558441
-0.628872 59.153839 393.433502
-0.526963 58.673439 399.573120
-0.516562 59.899086 396.041473
-0.562704 59.644287 393.842621
-0.483300 56.597027 402.497192
-0.499346 59.892677 394.403198
-0.367839 59.810791 396.586884
-0.367442 57.754452 401.016998
-0.309628 59.193340 398.606110
-0.334916 56.197201 397.434570
-0.241702 54.671967 403.872345
-0.298906 55.152222 398.461456
-0.368774 58.715401 393.704651
-0.257408 58.386013 400.036316
-0.237726 59.973011 395.514008
-0.240287 58.414276 394.280731
-0.109045 54.400208 398.990143
-0.182810 57.870636 395.173859
0.012452 56.166676 402.821014
-0.013437 57.077557 401.799469
0.035392 59.428200 397.775208
0.065480 59.600800 397.216034
0.056097 58.936127 399.140076
0.042632 55.615124 397.949860
0.058774 58.140480 400.524261
0.115916 58.622231 399.650299
0.087483 59.919018 394.753021
0.117707 59.797298 395.990173
0.107207 57.149719 396.313477
0.147258 59.616009 394.183167
0.199024 56.059242 397.600342
0.180478 56.754772 396.884552
0.323958 59.723080 396.723328
0.291150 57.602734 395.556549
0.376339 59.134468 398.371124
0.431200 55.264004 403.361908
0.381484 59.913635 395.353821
0.466767 58.816364 393.683990
0.561042 55.721607 403.020020
0.580933 59.457153 397.565369
0.598850 54.702236 398.797668
0.518900 57.988033 395.010345
0.655416 55.124878 398.496002
0.716582 58.696362 399.414459
0.673729 58.353790 394.378326
0.741595 57.619823 401.049805
0.794730 54.373501 403.834625
0.772043 59.772255 395.973541
0.851455 56.347511 402.373016
0.811682 56.757656 396.745056
0.851255 59.771984 394.676483
0.852423 57.743908 395.378967
1.010503 54.930653 403.437286
0.969628 59.841999 395.347443
1.017425 57.246338 401.360474
1.066529 55.406097 398.198730
1.064594 56.795815 401.900940
1.134733 57.795208 400.554413
1.267940 54.546417 398.853790
1.177055 59.467690 394.081451
1.255663 59.465546 397.488403
1.278828 55.959766 402.583496
1.226560 57.391731 395.739624
1.237141 57.008991 396.385956
1.266509 55.800884 397.750702
1.304008 54.967995 398.459320
1.302616 59.687012 396.506927
1.372991 54.371338 403.607391
1.370313 55.474781 402.944794
1.360120 56.222481 397.250488
1.433034 58.242226 399.836182
1.460449 59.140533 398.220245
1.427348 59.801441 395.015503
1.491094 58.877563 398.717010
1.532896 54.972565 403.171997
1.502515 59.833218 395.560791
1.520842 58.531414 393.637726
1.658854 57.277584 401.162811
1.707853 56.286861 402.253296
1.695997 57.227566 396.021576
1.743282 57.659851 395.313843
1.823764 56.808514 401.522980
1.761184 58.169727 394.498932
1.776680 56.732765 396.568024
1.891844 54.765430 398.581451
1.906618 57.906765 400.238953
1.930949 55.903870 397.501770
1.959168 55.323250 398.055634
2.037045 59.127014 397.890106
2.055109 55.714149 402.608826
2.072191 58.470692 399.227692
2.009073 58.259613 393.331573
2.039229 59.673836 395.697113
2.163194 59.333961 397.072906
2.153827 59.452351 394.529510
2.265213 54.784798 403.197113
2.210800 57.829113 394.945648
2.217268 56.480366 396.830933
2.303827 57.141277 401.189941
2.390931 58.185749 399.600189
2.344514 57.314411 395.771820
2.448732 54.521484 398.638000
2.462375 54.963196 398.319672
2.485033 56.243378 402.040466
2.439585 58.875896 393.999268
2.515378 59.522381 396.161102
2.595786 57.315266 400.670410
2.666862 58.572292 398.964783
2.658633 55.708046 402.393768
2.643311 55.776833 397.482147
2.636767 57.988171 394.567108
2.661159 57.514626 395.271301
2.713654 58.998440 397.852753
2.759401 58.772285 398.344330
2.837919 58.095478 393.619446
2.911179 56.413910 401.644501
2.855401 56.258190 396.989838
2.896807 55.267590 397.915894
2.912382 56.792095 396.180847
2.983369 55.079811 402.624969
3.001882 58.153828 399.417877
3.077478 57.670727 400.173065
3.036040 59.380573 396.386444
3.039892 59.193981 394.479248
3.105700 54.718678 398.374603
3.111961 59.496948 395.372406
3.190264 58.311352 394.093750
3.266130 59.113277 397.187042
3.397140 58.652264 398.283661
3.380055 57.502808 395.050995
3.393330 59.252544 394.933197
3.403936 56.194977 396.808624
3.418781 55.456299 397.533264
3.583183 58.044708 399.178375
3.540284 57.911785 394.399689
3.613523 57.055752 400.628906
3.634286 56.307098 401.394623
3.624632 57.111073 395.553986
3.624434 58.902676 394.399628
3.626129 56.824593 396.065369
3.658226 59.121346 396.675690
3.710237 58.911079 397.463684
3.978528 57.602741 399.701508
3.984203 55.764309 401.791840
3.942653 55.762745 397.133087
3.969821 54.779823 397.937317
3.962077 59.222187 395.951935
3.983695 58.534786 393.951630
3.987223 59.108315 395.106506
4.095537 57.285946 400.124725
4.122478 58.112854 398.879578
4.130456 54.961010 402.229980
4.093220 58.038540 394.229767
4.126810 55.362789 397.454132
4.163326 58.651520 397.703918
4.209449 56.667492 396.083191
4.277245 57.616943 394.565155
4.329599 58.856892 394.661194
4.410404 55.934540 396.728973
4.513497 58.193512 398.454224
4.640423 56.652508 400.663055
4.615573 58.420399 397.941071
4.636022 55.593830 401.619843
4.637242 57.225647 395.007507
4.639380 56.833138 395.548492
4.726404 57.414684 399.537445
4.717262 57.947918 398.918671
4.677734 58.979565 396.007294
4.700856 58.738525 397.174103
4.768356 56.104504 401.108276
4.791195 57.120361 400.082672
4.838167 54.354744 402.355804
4.885591 55.257290 397.320221
4.925211 58.595135 394.525360
5.113995 58.121155 398.451813
5.084976 56.468159 395.913788
5.162716 56.424725 400.675629
5.133031 58.906170 395.434052
5.204963 54.706482 397.637665
5.276186 57.760082 398.836761
5.267565 58.160610 394.311096
5.339328 57.242744 399.604523
5.314672 55.527931 401.316620
5.348142 58.333626 397.549530
5.404655 56.678921 400.194183
5.401276 54.826679 401.763519
5.451548 55.893604 396.451935
5.493759 58.672321 396.436554
5.536549 56.009731 400.773254
5.521586 57.250057 394.770660
5.520186 55.379730 396.924377
5.563702 56.535519 395.539948
5.707937 54.823910 397.252289
5.743904 57.884182 398.426117
5.729354 58.412239 397.050140
5.843301 57.355019 399.196655
5.835847 58.676983 395.486816
5.953702 56.974865 399.739014
5.884636 55.878155 396.015106
5.935421 54.367737 397.536743
5.971964 56.888306 394.971375
5.987152 58.508533 394.982330
6.011555 54.740417 401.383575
6.045006 55.587505 400.885590
6.023787 58.574764 396.099487
6.088459 57.251923 394.429016
6.113226 55.045174 396.842438
6.151767 57.885223 397.964874
6.209093 56.461487 400.042389
6.251251 57.461292 398.689331
6.233171 58.140392 394.631561
6.328253 58.262753 396.858002
6.457432 55.711273 400.433319
6.419647 56.145535 395.784302
6.476680 58.443787 395.361969
6.568272 58.397186 395.926270
6.580451 57.928783 397.281342
6.634189 56.477661 399.564972
6.582170 55.214027 396.445221
6.707996 57.546936 394.370605
6.710331 54.724434 396.789764
6.824852 57.438076 398.427704
6.927382 56.867653 399.172668
6.906968 56.738827 394.671204
6.910959 55.055965 400.750336
6.942692 58.190975 395.156342
7.002538 57.676319 397.556244
6.998433 54.503323 401.095154
7.043518 55.682507 400.229584
7.043668 57.986744 396.851776
7.155393 57.884167 394.724701
7.151137 58.116421 396.094208
7.244920 54.919270 396.205200
7.249359 55.731972 395.491119
7.352384 57.326965 398.025360
7.316114 56.052486 395.031494
7.561633 57.697853 396.785004
7.566580 55.567959 399.987640
7.594203 56.857990 398.513214
7.593984 57.428005 394.581085
7.696823 57.978802 395.938690
7.704722 55.323341 395.458038
7.718255 54.359241 396.400208
7.812186 56.036659 399.242157
7.823267 57.830212 395.153442
7.824899 55.090656 400.104218
7.869362 56.445911 398.821136
7.920236 56.601326 394.474335
7.985526 54.306042 400.601013
8.133342 57.108578 397.532898
8.103429 55.654480 394.752197
8.228930 56.540192 398.310516
8.253085 54.758739 395.698578
8.390979 57.496887 396.327759
8.443985 57.445141 395.150391
8.567568 57.552197 395.688202
8.608360 57.074501 396.825043
8.715925 56.102619 394.506805
8.705146 54.360546 395.639893
8.735637 55.213417 399.232788
8.731417 54.337769 399.887787
8.775763 56.402252 397.916107
8.770633 56.760731 394.665405
8.799530 55.661346 398.793304
9.041224 56.679665 397.339447
9.045843 55.246044 394.756256
9.099742 55.891193 398.278351
9.196380 56.826710 396.745758
9.197501 54.692139 399.220734
9.242424 57.053822 395.771088
9.302493 55.924923 394.610077
9.331431 56.118042 397.699890
9.316000 56.439217 394.917419
9.489299 56.719673 396.181549
9.564384 55.562630 398.054077
9.589726 56.565918 394.394775
9.625084 56.270679 397.078339
9.693203 54.669918 398.843689
9.730066 55.064117 398.354736
9.769595 56.372498 396.506470
9.815011 56.399395 395.238556
10.023013 56.404232 395.972229
10.082232 55.719208 397.069092
10.110073 55.445068 394.757172
10.134866 55.393715 397.543854
10.143323 54.470303 394.733948
10.173214 55.986980 394.662445
10.176842 54.533924 398.279968
10.394652 56.060394 395.544281
10.527760 55.499767 396.725983
10.551180 55.731728 396.131561
10.576579 54.465229 397.801575
10.775583 54.678478 397.273834
10.899230 55.365101 395.707336
11.043059 54.650768 396.680939
11.061820 55.180756 394.892822
11.117696 54.825489 395.969208
11.368756 54.560116 394.995209
-13.901535 52.771145 393.653656
-13.792636 51.776073 394.315369
-13.810229 52.295788 394.584076
-13.804964 52.174202 393.102234
-13.812775 53.558849 393.312103
-13.675850 51.290260 395.063904
-13.732265 52.910717 394.647064
-13.652992 51.548756 395.673096
-13.615790 52.342701 395.519928
-13.664351 52.919399 392.214386
-13.505658 50.522587 395.047333
-13.680481 54.090908 393.173920
-13.499476 50.878288 395.794647
-13.503568 52.078609 393.891449
-13.575093 53.819954 391.942261
-13.553881 53.943794 393.949188
-13.379073 49.963085 396.061920
-13.470172 53.513397 395.306122
-13.372273 51.191654 396.401764
-13.326526 50.958954 394.706635
-13.463084 53.585102 392.528687
-13.279714 49.668102 396.905884
-13.333773 51.614845 393.533905
-13.350273 52.893616 396.312836
-13.358780 53.177406 395.802216
-13.209174 50.298397 395.593445
-13.274858 52.352169 396.511627
-13.235641 51.318825 397.064270
-13.344645 53.953663 394.949860
-13.160830 50.486618 397.160767
-13.051683 49.767925 395.279633
-13.035131 49.288399 395.851776
-13.051851 51.122597 394.133514
-13.134811 53.695961 396.073975
-13.040288 51.718975 397.464600
-13.053311 52.532990 397.049133
-13.046336 53.162098 396.709106
-12.918289 49.422565 397.599152
-13.033792 53.060059 392.265137
-12.877258 48.712673 397.634613
-12.865817 50.597580 394.717010
-12.884440 51.197777 397.952789
-12.950572 52.731953 392.779755
-12.819427 49.859409 398.146057
-12.821465 50.620605 398.203064
-12.725983 48.102566 396.916992
-12.728719 49.097710 398.254700
-12.684070 49.037815 396.502136
-12.826103 53.625996 396.971527
-12.820224 54.011440 396.500916
-12.745215 52.028992 393.470795
-12.711575 51.738899 398.175659
-12.637472 48.294769 398.127045
-12.669655 52.846081 397.725861
-12.696240 54.164215 392.094788
-12.562973 52.304043 398.304535
-12.601833 53.598305 392.436554
-12.479526 47.583706 397.998627
-12.486975 50.405285 398.793732
-12.451942 48.735096 398.808380
-12.451986 51.609619 398.780396
-12.372932 48.144115 397.500366
-12.359649 50.451260 394.968079
-12.474705 52.902004 393.169891
-12.334758 49.410213 395.657440
-12.357756 47.417889 397.226135
-12.413132 51.937164 394.050049
-12.438647 53.987576 397.329559
-12.324773 50.825726 399.181854
-12.314300 49.177502 399.159271
-12.289457 50.025345 399.181915
-12.298268 52.517078 398.776276
-12.195863 48.872868 396.074615
-12.236972 46.952435 398.100586
-12.224174 51.457489 394.554810
-12.189393 47.698372 399.037964
-12.170482 49.611553 399.583191
-12.178027 47.203926 398.655762
-12.126995 53.454082 398.636292
-12.022866 46.771118 397.526978
-12.082151 52.535000 394.202118
-12.099790 53.354336 393.176849
-11.903441 47.804733 396.751251
-11.954870 52.103821 399.606293
-11.883069 49.458748 396.111603
-11.964267 46.392639 398.493500
-11.872497 50.277889 395.659088
-11.843678 48.381947 396.333069
-11.901171 51.212494 399.773254
-11.869127 51.500576 395.064941
-11.842366 48.779427 399.864899
-11.836791 46.807022 399.194427
-11.802823 50.619625 400.043671
-11.795974 49.985672 400.146454
-11.795330 46.272030 397.814392
-11.772755 53.129982 394.024628
-11.788717 53.951813 393.077728
-11.776801 53.592030 393.591187
-11.723822 45.789513 398.269531
-11.667104 47.658367 399.965881
-11.619333 51.120960 400.277893
-11.621116 53.871925 398.989227
-11.533301 47.298000 397.221649
-11.527394 49.170498 400.459442
-11.547384 52.611462 394.799286
-11.449340 51.658375 400.452606
-11.470255 53.318279 399.678436
-11.459413 46.712185 399.831543
-11.391746 50.653301 396.036346
-11.422709 51.921181 395.421021
-11.345769 47.749363 396.891083
-11.348498 49.732754 396.374207
-11.402474 52.338722 400.263153
-11.390475 45.819981 397.694733
-11.399598 45.886749 399.352295
-11.328601 54.045563 393.505890
-11.174987 49.252090 396.655212
-11.196527 47.382393 400.545990
-11.187430 50.197033 400.826782
-11.086940 52.036556 400.837372
-11.070751 51.034866 400.988739
-11.063900 52.883808 400.589294
-10.983037 48.329910 397.024323
-10.990044 48.812794 401.128448
-10.946837 47.345024 397.197205
-10.984390 49.802044 401.201569
-10.965045 52.644337 395.395111
-10.988643 53.608791 394.579529
-10.922857 47.736568 400.952087
-10.905107 45.448921 397.919708
-10.910422 45.793179 400.136505
-10.847852 51.871040 395.942444
-10.795093 48.894894 397.038147
-10.839811 54.060463 400.162750
-10.802897 53.603268 400.514709
-10.765526 51.632599 401.241058
-10.759472 49.290142 401.416473
-10.751127 48.285107 401.266327
-10.755493 46.433834 400.638855
-10.694395 51.308895 396.351135
-10.651500 52.493732 401.171478
-10.607954 50.110226 396.975616
-10.630616 53.255672 401.041534
-10.568243 50.758812 396.796661
-10.611784 45.861252 400.626434
-10.582308 46.781528 397.495209
-10.492812 50.496727 401.702789
-10.471437 48.234371 401.790833
-10.487509 52.569740 396.041321
-10.439932 47.607098 397.448486
-10.453105 53.119953 395.632782
-10.380470 53.892456 400.857361
-10.311980 48.527935 397.551971
-10.336422 46.801762 401.481049
-10.278914 51.990295 396.406036
-10.218058 51.585796 402.019867
-10.245898 45.456482 397.792023
-10.252347 53.706093 395.379852
-10.186259 51.412914 396.744232
-10.181651 52.842892 401.731445
-10.182349 46.131603 401.206635
-10.183742 45.470360 400.886322
-10.079291 49.819958 397.506348
-10.032967 53.579861 401.459106
-9.996184 49.251183 397.673889
-9.997251 47.828182 397.818573
-9.959204 49.877979 402.382477
-9.947024 51.094749 397.215790
-9.958922 52.904884 396.213165
-9.929049 54.238369 401.273041
-9.927612 52.411358 396.645081
-9.921605 46.908447 397.891907
-9.836796 52.330372 402.194794
-9.835987 46.771286 401.956604
-9.813071 48.564754 402.364410
-9.804263 48.529724 398.018799
-9.786335 47.585796 402.299042
-9.753993 50.567673 397.539642
-9.683623 50.788784 402.639984
-9.660303 49.107811 402.660248
-9.616794 50.010403 397.743011
-9.555095 48.081448 402.609222
-9.544147 54.047859 401.767426
-9.565701 53.428265 396.234985
-9.454045 52.635773 402.620361
-9.483531 54.223217 395.745972
-9.474898 45.654671 401.763397
-9.463794 51.512337 397.300751
-9.475403 45.982273 398.085663
-9.437789 47.072102 402.462616
-9.456646 47.266048 398.218842
-9.424565 52.266773 397.009491
-9.309724 49.497280 402.997864
-9.333770 46.391968 402.333588
-9.287301 47.582729 402.694824
-9.298237 51.126579 397.704285
-9.219098 51.870289 402.882202
-9.271941 49.558159 398.193939
-9.181838 51.171204 403.086273
-9.184626 53.368690 402.371826
-9.174307 48.336132 402.998169
-9.145720 48.925056 403.065826
-9.141802 48.424904 398.464111
-9.015026 50.471695 403.186737
-9.054594 54.079189 396.155670
-8.964626 52.454262 403.036255
-9.002074 52.812317 397.085602
-8.970055 51.657879 397.583221
-8.903842 46.857964 402.836060
-8.934318 50.782463 398.019379
-8.919009 50.191067 398.189636
-8.887733 46.739765 398.540009
-8.825231 45.503506 402.508392
-8.816729 46.097553 402.770264
-8.772592 45.660610 398.352020
-8.722489 49.366222 398.533173
-8.690399 47.547112 398.732056
-8.627459 53.941036 396.566010
-8.609369 52.209625 397.648285
-8.601409 48.881725 398.815765
-8.514395 47.221519 403.308289
-8.564473 53.507099 396.958221
-8.478083 52.853619 403.130768
-8.459496 49.632473 403.671875
-8.427271 48.765640 403.642792
-8.462028 47.012981 398.796204
-8.385234 45.546085 402.895050
-8.279686 51.291561 403.660309
-8.382331 50.933910 398.287994
-8.258404 47.781269 403.577698
-8.278572 48.412937 398.972595
-8.182724 46.391056 403.323334
-8.182007 53.840889 402.782562
-8.012856 52.444500 403.574707
-8.104881 45.528938 398.714844
-8.065173 46.227154 398.930756
-8.071493 50.404240 398.702454
-7.993241 54.260628 396.854279
-8.048670 49.460953 399.077911
-7.932595 46.948856 403.633118
-7.864724 50.495754 404.049896
-7.931776 47.339260 399.172943
-7.821354 45.929592 403.295013
-7.912374 52.126015 398.141479
-7.755734 51.112305 404.094269
-7.750718 48.984333 404.154388
-7.805623 51.542904 398.478760
-7.672121 47.751217 404.031006
-7.647979 49.628838 404.198822
-7.648623 53.609016 403.257660
-7.711042 53.348232 397.540619
-7.586045 52.759705 398.124146
-7.543001 45.746029 398.967865
-7.411897 50.243233 404.296631
-7.428772 46.182514 403.749481
-7.469264 54.084454 397.196564
-7.386521 51.783363 404.074493
-7.382465 48.412922 404.219574
-7.359368 53.120434 403.750702
-7.360565 54.211262 403.288422
-7.453300 48.611111 399.438477
-7.439478 51.280621 398.883087
-7.392648 47.097851 399.272675
-7.365905 47.746510 399.377380
-7.188390 45.385349 403.613953
-7.318882 49.853634 399.375000
-7.151665 48.922314 404.395874
-7.192452 53.726856 397.723236
-6.962226 52.643002 404.082733
-6.969615 47.861355 404.328644
-7.130486 49.338810 399.582764
-6.961199 49.476143 404.438202
-6.947267 50.611240 404.442841
-7.055791 52.473335 398.532684
-7.045646 51.759193 398.830109
-7.009750 50.333740 399.241394
-6.824758 46.914680 404.153107
-6.988620 50.939968 399.174164
-6.892014 46.422283 399.365173
-6.774481 53.385628 403.977356
-6.710246 51.527985 404.460419
-6.809624 47.219563 399.520294
-6.672460 48.484974 404.501892
-6.626235 45.551334 404.024414
-6.565488 45.455963 399.222748
-6.637423 49.882328 399.612793
-6.397442 47.887966 404.596924
-6.402614 54.228107 403.811371
-6.305933 52.211910 404.436737
-6.279122 48.945641 404.740448
-6.280069 49.606426 404.833557
-6.424809 52.859417 398.766022
-6.372316 53.407326 398.419189
-6.421343 52.146839 398.961639
-6.389462 48.482632 399.756836
-6.229846 45.991341 404.328705
-6.359457 51.225880 399.249451
-6.157611 50.263954 404.803345
-6.341811 50.484879 399.535370
-6.264598 47.516125 399.703674
-6.138752 54.296631 397.880005
-5.988292 46.557507 404.621582
-5.932088 48.300976 404.801758
-5.971828 45.490162 399.402863
-5.893123 47.331234 404.651978
-5.892556 51.589863 404.812286
-5.884242 53.725521 404.265228
-5.867578 50.917648 404.829498
-5.907758 52.409260 399.064362
-5.905514 51.762428 399.303680
-5.799938 46.453465 399.792358
-5.805982 53.586605 398.516937
-5.673739 45.665424 404.524933
-5.770006 47.699963 399.922821
-5.584036 52.337093 404.737152
-5.747044 50.944843 399.605560
-5.522832 45.903442 399.536469
-5.624335 49.517143 399.924408
-5.397314 49.748596 405.074402
-5.369590 47.135021 404.950317
-5.357015 54.203259 404.163940
-5.512689 50.089798 399.854248
-5.306363 48.159977 404.791840
-5.435682 53.231228 398.907806
-5.382499 47.060047 399.825012
-5.449472 52.162762 399.352905
-5.229107 48.900631 404.849274
-5.305197 54.279396 398.325989
-5.372374 48.250042 399.943939
-5.207531 53.514126 404.534943
-5.230777 46.308792 399.778076
-5.094762 45.962093 404.596222
-5.022201 46.585609 404.955109
-5.012024 50.885254 405.086914
-5.109753 47.682659 400.046722
-4.988388 52.976997 404.750000
-4.843105 49.311516 405.173340
-4.839394 50.184097 405.182617
-4.924060 50.301960 399.960632
-4.720913 48.362377 405.176208
-4.828991 52.394360 399.384125
-4.659977 45.628422 404.917542
-4.671161 52.070992 404.997772
-4.803075 49.712673 399.999878
-4.660048 45.623817 399.723022
-4.720232 49.035923 400.112122
-4.531519 47.418861 405.219086
-4.600697 47.190548 399.981598
-4.469901 53.696308 404.610931
-4.471823 53.864315 398.844086
-4.395205 50.560795 405.204315
-4.457963 53.011616 399.326050
-4.502042 50.992111 399.936523
-4.406943 47.772099 400.248779
-4.269353 46.502003 405.149170
-4.307397 54.263943 404.393402
-4.343795 46.623837 400.026855
-4.244295 46.020779 404.855347
-4.176554 49.939240 405.311493
-4.289277 52.229488 399.626953
-4.225811 48.338966 400.369629
-4.090057 49.283943 405.365662
-4.027526 53.107189 404.801331
-4.008999 45.817020 399.844727
-3.945266 45.665806 405.236298
-3.917766 51.454891 405.064209
-4.018626 49.784164 400.206635
-3.896832 52.756359 399.489746
-3.776420 50.617752 405.278290
-3.693982 48.071297 405.422577
-3.675029 46.640987 405.320892
-3.706079 52.565552 405.035858
-3.652425 53.890015 404.648102
-3.674997 48.528351 400.373840
-3.546776 49.774921 405.432159
-3.526892 47.253021 405.373962
-3.524098 51.930328 405.156372
-3.570837 53.307384 399.427704
-3.495944 46.693989 400.264465
-3.461361 47.592312 400.303131
-3.468527 49.223133 400.334442
-3.411509 49.817997 400.287689
-3.309326 53.097439 404.888275
-3.375407 52.056671 399.837860
-3.223905 45.846310 405.338043
-3.186965 50.254692 405.397095
-3.196271 45.883606 400.077271
-3.147815 49.361404 405.464813
-3.116931 46.878307 405.473785
-3.073997 47.587246 405.233734
-3.194392 50.790028 400.227386
-3.157678 52.769814 399.662354
-3.047624 51.182053 405.085785
-3.013631 48.719707 405.488190
-3.080936 48.581963 400.463715
-3.004845 52.434978 405.038849
-2.859417 53.542568 404.732941
-2.839564 49.781338 405.227875
-2.785400 54.105225 404.477570
-2.741910 49.512020 400.493195
-2.664381 53.278271 399.526978
-2.621646 46.467205 405.174896
-2.586711 47.681549 405.533203
-2.600594 45.745506 400.225739
-2.591760 46.699837 400.303345
-2.623968 51.580360 400.153137
-2.537165 48.066681 400.480804
-2.493096 52.498505 399.908722
-2.365454 51.155556 405.248260
-2.268270 49.543880 405.511230
-2.229187 48.459637 405.284302
-2.248108 52.157101 404.884491
-2.170556 47.284542 405.302368
-2.201734 50.031784 400.374268
-2.148437 53.048977 399.783936
-2.124781 45.423267 405.408539
-2.135628 51.985310 400.084381
-2.091774 53.883583 404.543030
-2.059525 47.969135 405.558105
-2.089420 50.862164 400.361877
-2.039507 53.581463 399.456451
-2.069270 48.441025 400.615295
-2.064517 49.131817 400.521362
-1.899810 46.113659 405.214752
-1.863077 45.835629 400.322571
-1.842982 50.561325 405.329620
-1.829009 53.142090 404.828491
-1.755904 48.715916 405.551361
-1.700070 52.669697 399.973083
-1.711613 46.975933 400.477509
-1.583488 49.314999 405.279846
-1.571664 47.837238 400.569092
-1.503110 51.904488 400.139618
-1.492441 54.234253 404.359131
-1.487077 51.515461 405.166595
-1.419005 53.300758 399.646271
-1.399335 46.224728 400.395660
-1.370347 46.256912 405.525299
-1.341524 48.904758 400.510101
-1.290139 47.250736 405.617157
-1.279949 52.561867 404.941956
-1.254849 50.123241 400.497894
-1.241938 51.360767 400.361359
-1.150678 54.219818 399.131439
-1.154328 48.684067 405.569458
-1.146303 47.946774 405.503387
-1.148869 46.733273 400.515808
-1.101264 52.447102 399.946167
-1.126924 45.528084 400.283325
-0.958063 49.569057 405.463226
-0.927560 53.663960 399.388458
-0.896451 50.143215 405.411652
-0.839268 52.043056 404.810486
-0.823383 54.260616 404.247620
-0.779811 51.716469 400.151093
-0.788204 53.218483 404.724884
-0.746572 49.322113 400.634247
-0.650945 53.163685 399.707489
-0.695191 47.175632 400.631531
-0.595823 48.609146 400.634003
-0.575494 51.022945 400.378998
-0.475046 52.452351 400.071259
-0.529597 45.907303 405.506805
-0.521906 48.187405 405.512543
-0.501930 47.905941 400.622345
-0.456787 51.334469 405.140991
-0.334102 47.167355 405.372223
-0.308075 50.022015 405.269989
-0.273522 52.449829 404.602997
-0.262650 46.183880 400.413330
-0.192306 51.913330 400.185760
-0.206382 46.523418 405.552063
-0.145199 53.853558 399.480438
-0.089698 49.689625 400.538483
-0.107558 50.648090 405.228180
-0.009262 45.427563 405.390594
0.009047 47.917255 405.516357
0.118376 52.999733 399.679199
0.102309 48.288631 400.688202
0.090148 47.067562 400.516235
0.104221 49.366562 405.339355
0.131226 48.963223 400.604706
0.130238 53.945431 404.189514
0.155576 53.383846 404.415985
0.194393 48.627392 405.442413
0.199079 45.401848 400.210205
0.275856 50.698189 400.363678
0.288410 52.384838 400.018494
0.255954 51.697693 404.877502
0.362994 51.648571 400.155731
0.346983 49.881775 405.234528
0.344583 46.379070 405.471039
0.354140 52.322613 404.766541
0.580376 54.215656 399.209076
0.683770 49.460278 400.611755
0.722158 48.116386 400.622925
0.735755 50.908131 404.975800
0.792368 47.462917 405.384888
0.821027 51.532471 404.806519
0.913980 50.926361 400.448334
0.876508 50.219856 405.141174
0.967925 52.794086 399.834991
1.006755 50.175068 400.440887
0.952505 47.552601 400.555450
0.977483 45.665154 400.240448
1.073847 52.070660 400.143097
1.009108 46.592682 405.376465
1.024815 52.698799 404.440887
1.049403 48.193714 405.266510
1.059353 45.531246 405.294525
1.063053 52.101337 404.606689
1.132896 49.176746 405.251434
1.160105 46.366001 400.389587
1.269562 53.657421 399.443451
1.286310 48.586605 400.560394
1.312815 50.608612 404.944214
1.348199 47.056423 400.488373
1.438802 51.353912 400.243500
1.438688 49.789059 400.501648
1.478851 48.047203 400.536102
1.462415 51.303596 404.715942
1.458636 46.195343 405.347046
1.558403 50.773083 400.439056
1.508545 53.385921 404.097870
1.623745 53.198009 399.608398
1.641045 51.931824 404.450195
1.758503 45.443962 400.168335
1.863173 49.699028 404.977966
1.868843 46.015224 400.270020
1.888389 47.413185 400.566742
1.994772 51.745880 400.045135
1.953462 50.400562 404.841522
2.125326 51.151272 400.264801
2.021330 47.920288 405.160400
2.039638 46.710526 405.217621
2.072803 51.123821 404.622650
2.080026 49.130993 404.990021
2.079144 48.538288 405.126801
2.132934 48.273556 400.500458
2.153656 46.790436 400.417664
2.208470 51.991543 404.327728
2.200437 54.242805 403.439789
2.248339 52.610653 404.112793
2.366415 52.593666 399.762268
2.360956 47.433273 405.065155
2.426483 47.725628 400.424438
2.495403 53.941326 399.035583
2.542128 48.720707 400.399170
2.498070 53.382179 403.866364
2.622995 51.625549 400.100922
2.541987 46.265366 400.264648
2.626257 49.477695 400.407623
2.568801 49.796658 404.762665
2.569406 48.095623 404.920837
2.661572 53.255409 399.358612
2.602961 50.390030 404.673798
2.677042 48.663448 404.955841
2.779589 50.054123 400.343384
2.723518 51.685028 404.247559
2.735126 51.035480 404.428284
2.858045 50.991478 400.212860
2.757156 45.909016 405.000702
2.818454 46.932037 405.017761
2.869039 52.407093 404.099579
2.977863 52.132801 399.835938
3.016804 46.879303 400.272858
3.068185 45.818157 400.179688
3.087424 53.673866 403.411102
3.090897 49.019600 404.742004
3.133823 48.473064 400.382050
3.166879 50.322727 404.522644
3.306477 51.475201 399.953217
3.283118 53.026470 399.420380
3.347440 50.967014 404.234894
3.352994 54.187416 403.102417
3.425282 47.411674 400.343781
3.519205 50.874287 400.041229
3.444078 46.368954 400.251282
3.425548 46.955410 404.730011
3.447775 51.573483 404.074768
3.462058 48.032574 404.674774
3.539054 49.553886 400.210297
3.668874 52.009762 399.750793
3.609893 53.333675 403.431213
3.699136 53.964016 398.719604
3.660592 46.226509 404.690277
3.676336 49.597530 404.555389
3.701252 50.295197 404.271637
3.872263 51.402874 399.803711
3.782681 45.869732 400.095734
3.857723 48.484200 400.265778
3.874701 52.421455 403.596344
3.894063 54.245007 402.837067
3.932810 47.351379 404.517059
3.978557 50.807426 404.133148
3.996696 49.048004 404.390961
4.014235 46.534710 400.082672
4.102036 50.609737 400.010773
4.121338 49.934940 400.089081
4.083665 46.705807 404.556854
4.106128 45.396538 399.832825
4.115978 51.406685 403.912872
4.134751 53.616512 403.085815
4.205820 54.093044 398.444275
4.343837 52.559448 399.297638
4.402750 51.135723 399.815063
4.382530 47.950806 400.118958
4.383005 48.332241 404.391113
4.390496 50.007442 404.075165
4.462769 54.039104 402.642975
4.479076 46.983551 400.016327
4.486160 52.111794 403.459534
4.491947 49.358761 404.220764
4.560340 46.008312 399.955414
4.576256 47.336861 404.434174
4.708593 51.952850 399.440430
4.697689 52.620724 403.270386
4.782676 50.208263 399.932587
4.787166 53.338745 398.704132
4.762327 51.415382 403.527008
4.760828 46.140961 404.349945
4.863281 48.989338 399.930542
4.916861 51.321819 399.592133
5.049823 49.549397 399.900635
5.051115 46.716518 399.814545
5.126794 52.299122 399.206329
5.118886 48.459232 399.879364
5.115268 54.232349 398.007507
5.178887 50.799038 399.645996
5.147676 52.844555 402.879822
5.160661 52.274261 403.116180
5.169642 47.123322 404.158905
5.190706 50.798679 403.570496
5.203692 45.669800 399.652313
5.208435 49.319366 403.851044
5.355239 50.070881 399.650055
5.378195 47.240185 399.782043
5.438866 51.411499 399.335419
5.382528 46.210491 404.052795
5.394362 50.043541 403.680176
5.454531 51.550060 403.242249
5.520622 52.568134 398.815735
5.525733 46.291676 399.543884
5.500977 48.467823 403.947052
5.561974 53.780651 402.249756
5.640207 48.192616 399.679077
5.682377 52.699829 402.727570
5.742183 49.571285 399.648651
5.819154 50.942627 399.378265
5.900937 52.895557 398.532104
5.899837 52.033489 402.939880
5.897039 50.453972 403.340302
5.923780 53.220406 402.373077
5.975267 53.437111 398.158875
5.960594 45.679226 399.297852
5.965140 51.124386 403.116638
6.013348 49.088482 403.488037
6.105647 51.840096 398.933167
6.049112 46.561283 403.744965
6.075064 45.999153 403.685394
6.165265 51.262493 398.998260
6.108662 49.767048 403.317352
6.216499 46.477562 399.402405
6.210507 47.129234 403.599335
6.215590 48.095158 403.609985
6.285820 51.543713 402.849823
6.313732 50.316822 399.212891
6.320575 47.282600 399.370239
6.324344 48.711411 399.380249
6.355619 52.672955 402.404236
6.448335 50.296169 403.080139
6.484315 53.445782 397.734863
6.502059 54.249584 401.527313
6.666818 52.933338 397.981293
6.698262 49.442909 399.147858
6.730251 53.627178 401.732574
6.733636 48.312126 403.314667
6.782861 46.796532 399.191833
6.819301 52.432686 398.249512
6.807650 54.230000 397.127075
6.823560 52.363522 402.258942
6.838377 47.898521 399.219452
6.848037 45.500259 398.996429
6.843687 49.295986 403.062317
6.920602 53.707355 397.424591
6.902557 46.424397 403.255463
6.956909 51.872631 398.438354
6.963512 50.993847 402.611481
7.023675 50.867981 398.681610
7.020163 50.165462 398.852173
7.014931 47.357689 399.141296
7.072069 48.612392 399.022888
7.146160 47.465458 403.035980
7.203155 52.753052 397.771332
7.254285 53.404823 401.540863
7.262834 45.926624 402.976166
7.306308 52.162750 398.077393
7.264549 49.987480 402.619476
7.330172 46.258266 398.849182
7.382162 45.663799 398.747223
7.419769 51.473541 402.221252
7.464433 48.621990 402.760712
7.486421 46.969395 402.888428
7.513181 54.127621 400.979492
7.525763 48.842190 398.766571
7.564168 47.579483 398.835449
7.588500 53.787666 396.971771
7.660951 49.984886 398.495209
7.665799 52.019428 401.858948
7.683156 52.990894 397.392792
7.660133 50.319912 402.293427
7.676407 53.617115 401.216644
7.710182 51.687508 398.035614
7.673317 49.563152 402.531189
7.679615 47.587994 402.721405
7.706301 52.978504 401.432770
7.798689 46.806915 398.664551
7.811474 48.359383 398.585144
7.816289 52.317333 397.631775
7.855487 51.067860 398.059784
7.844690 45.641273 402.416687
7.884787 50.880863 402.049194
7.883075 48.137798 402.518219
7.951057 49.079205 398.443817
8.009086 50.372902 398.154816
8.024664 49.111946 402.376526
8.130126 45.740391 398.398468
8.215369 51.792873 397.646179
8.217710 52.944897 397.106049
8.203695 46.688877 402.381958
8.300622 50.545780 401.834808
8.312205 51.908520 401.536407
8.322075 53.430580 400.734467
8.330754 51.239239 397.776764
8.343076 51.116383 401.749115
8.404951 46.369362 398.287048
8.415040 49.452747 397.962067
8.421241 48.616222 402.137146
8.507716 48.250584 398.148163
8.514803 52.530273 401.144928
8.547511 46.999973 398.261505
8.565083 50.644173 397.615021
8.550916 47.775017 401.965363
8.575109 45.865520 401.793915
8.596251 49.594540 401.802765
8.678393 51.960152 397.182220
8.743568 45.627605 397.995667
8.767323 53.836830 396.098907
8.770975 51.279072 397.358582
8.840308 53.097393 400.500732
8.845977 46.867611 401.640564
8.892866 49.900520 397.723236
8.891639 51.758327 401.039032
8.968949 52.804695 396.535400
9.007178 52.357910 400.733673
9.048811 47.187767 397.835632
9.075762 48.601742 397.842377
9.092123 48.953323 401.551300
9.153825 53.953377 395.585449
9.144176 46.165493 397.735626
9.130004 51.050476 401.050995
9.163430 53.305286 396.088715
9.144191 45.672237 401.048401
9.226066 51.598896 396.973358
9.234152 50.825294 397.228424
9.253932 48.030853 401.364502
9.303169 49.468193 397.370331
9.326514 47.315319 401.286469
9.380472 46.740688 397.575165
9.366804 50.362740 401.101044
9.416908 53.605469 399.669769
9.389750 46.203918 400.972748
9.401871 51.805115 400.604309
9.415870 48.210415 397.541718
9.418559 46.193134 397.244934
9.411673 49.425888 401.233978
9.519844 52.272377 400.292358
9.521879 51.909706 396.589508
9.538337 50.063763 397.275574
9.579864 54.094299 395.127716
9.563870 52.837643 395.998199
9.588820 45.551620 397.435486
9.589455 47.373688 397.541718
9.625714 53.512615 395.543762
9.655459 48.645756 401.050873
9.674269 51.224842 400.586639
9.698595 47.037006 400.814056
9.753398 46.353374 397.821533
9.775064 52.973934 399.703583
9.759869 49.987934 400.853180
9.783014 45.783836 400.186554
9.782155 47.871220 400.827332
9.823201 51.693859 400.227692
9.874346 53.783291 399.086273
9.860435 49.408276 400.752289
9.913445 50.308178 396.850098
9.923776 52.127876 396.183228
9.958627 46.861416 397.463379
9.966541 49.028397 396.995209
10.071323 52.462688 395.706390
10.100188 45.646130 398.482269
10.110081 53.825275 394.834534
10.069042 50.857296 396.566803
10.062581 48.818855 400.597504
10.098031 48.349049 397.095001
10.086291 47.353607 400.375793
10.096935 49.736969 397.003662
10.183623 53.286968 395.240326
10.174633 51.635738 396.059418
10.209386 46.715900 399.957001
10.229145 48.153450 400.371094
10.265731 52.171986 399.654633
10.282659 45.922146 399.010345
10.261014 47.790504 396.880371
10.273289 47.304417 397.222229
10.270226 48.887817 396.210632
10.307933 50.462212 400.136658
10.306821 49.364880 400.181519
10.339834 46.395912 399.393738
10.334935 48.338955 396.496460
10.377223 46.365845 397.701996
10.448887 46.141090 398.374664
10.495974 53.884266 398.394135
10.460554 47.148666 399.684967
10.464096 47.672466 399.924164
10.506853 52.086678 395.506561
10.561507 53.007294 398.850800
10.572188 46.974724 397.633606
10.538067 48.733040 400.167023
10.586441 52.762035 395.308929
10.599681 49.134808 396.594940
10.623097 51.343517 399.567108
10.622536 49.861782 396.530609
10.644559 46.913624 399.158783
10.630725 50.642357 396.218231
10.693988 46.708843 398.156586
10.841603 47.552322 399.204437
10.839249 48.756329 399.640717
10.862708 48.190025 399.356384
10.894773 47.163921 398.599823
10.897786 48.464825 396.894592
10.941340 53.995186 395.010468
10.921556 47.461655 397.413116
10.919909 51.286438 395.646423
10.944963 49.834164 399.469147
10.997913 51.944302 398.835724
11.042487 52.770061 398.383362
11.069123 53.946217 397.400391
11.059028 52.295864 395.439392
11.116501 53.426666 395.045959
11.128840 47.765881 398.010254
11.151170 51.381142 398.723267
11.146281 48.326984 398.852234
11.283535 50.126766 398.963409
11.289418 50.178089 396.420624
11.309950 50.820068 398.776031
11.286387 50.710636 396.112457
11.365368 54.023518 396.713715
11.320089 49.310387 396.676727
11.366549 52.843670 395.333221
11.388971 53.264332 397.481903
11.366897 48.667366 398.345642
11.389838 49.262707 398.765106
11.424436 48.558407 397.208466
11.431228 51.725929 398.302979
11.431460 51.627270 395.734467
11.462164 52.366333 398.015839
11.496425 53.943798 395.170898
11.542792 54.060444 395.996124
11.631573 53.228985 396.900360
11.635494 49.661633 397.869019
11.636349 49.084896 397.523773
11.711624 50.545486 398.008087
11.714249 49.651989 397.278046
11.723732 49.908058 396.158325
11.757966 51.512463 397.560272
11.805503 53.252254 396.177399
11.849395 50.485291 396.351410
11.913509 50.464291 397.211304
11.938763 51.200745 396.430359
11.972104 52.682037 395.391174
11.965647 51.550945 396.914062
11.974196 52.303844 396.551147
11.996552 51.971260 395.504791
-11.304171 45.321266 398.690033
-10.887473 44.807686 398.923157
-10.826217 44.883907 398.087219
-10.664927 45.033424 399.858337
-10.556920 44.423264 399.386536
-10.380244 45.137463 400.388153
-10.358058 43.968231 398.950714
-10.261518 44.186749 399.932404
-10.077834 44.603157 400.458435
-9.895026 44.968544 401.007782
-9.839107 44.683849 397.952698
-9.742415 45.285275 397.984497
-9.697945 43.431450 399.152924
-9.687017 43.522339 399.736847
-9.650559 43.723736 400.304535
-9.467576 43.749046 398.506317
-9.464320 44.308331 401.155579
-9.398916 43.241810 400.211761
-9.389071 43.032814 399.637970
-9.254434 43.095875 398.990662
-9.134498 43.579739 397.958710
-9.064532 44.782269 401.957733
-9.003660 43.209881 398.404877
-9.001296 43.070316 400.675751
-8.984759 42.624428 399.409973
-8.930224 44.620312 397.996277
-8.887173 42.666710 398.773590
-8.735808 44.249813 401.834778
-8.690977 42.389637 399.938019
-8.566658 42.848495 401.016754
-8.507448 44.921333 402.502838
-8.484493 43.318867 401.555756
-8.438611 44.214558 398.320648
-8.440992 43.434151 398.115814
-8.369325 44.363110 402.295807
-8.358104 42.245018 399.173706
-8.288231 42.025795 400.129730
-8.122357 42.525784 401.236969
-8.076158 43.393681 402.073944
-7.970416 43.938946 402.427460
-7.924596 42.791370 398.336517
-7.800848 45.322266 403.244598
-7.870275 41.833851 400.676849
-7.815710 44.638691 398.592590
-7.690736 44.478786 403.045593
-7.760579 41.961681 398.766693
-7.737311 43.475273 398.304108
-7.716658 44.044891 398.466919
