-1.836892 55.811714 397.844055
-1.863142 59.778149 397.170044
-1.850973 56.793549 396.792084
-1.713365 59.054359 399.270020
-1.685166 58.596931 400.317810
-1.706794 60.075970 395.961670
-1.625370 58.810955 399.798187
-1.544985 56.271290 403.125305
-1.577414 59.544842 397.838867
-1.462843 57.767498 401.464081
-1.578175 59.255756 393.242767
-1.366883 59.852608 393.837738
-1.203858 56.739075 402.523651
-1.213774 54.708069 404.059143
-1.237118 55.076382 398.452179
-1.215935 55.552925 398.070557
-1.157007 59.176495 399.095917
-1.218274 58.547787 394.084198
-1.085911 55.279842 403.792297
-1.055130 57.324879 401.881622
-1.089797 58.856129 399.608856
-1.151921 60.111080 394.257965
-1.102464 59.982849 396.116852
-1.128508 58.915413 393.397430
-1.108786 60.193367 394.801025
-1.042628 59.345852 398.570801
-1.077858 60.144222 395.543182
-1.091857 58.293251 394.649200
-0.959877 58.238087 400.694672
-0.954415 58.580105 400.139099
-1.001882 59.829082 397.024384
-0.949289 57.794415 395.366699
-0.847120 57.878765 401.219330
-0.905425 55.973354 397.804413
-0.882426 59.531277 398.008606
-0.843114 57.341976 396.065765
-0.822921 56.731411 396.936493
-0.685009 55.735786 403.281982
-0.687522 54.517365 398.925629
-0.579262 59.070747 399.066162
-0.475063 57.557796 401.594055
-0.591778 59.290668 393.388763
-0.472273 58.755024 399.590729
-0.507071 60.003162 396.024841
-0.531447 59.782795 393.804840
-0.391361 56.614967 402.524384
-0.482375 60.021503 394.367767
-0.374941 59.902168 396.577759
-0.281976 57.816730 401.055511
-0.280024 59.276440 398.623138
-0.290616 56.240803 397.449432
-0.240861 54.686245 403.877747
-0.259261 55.180828 398.471100
-0.325900 58.840168 393.664398
-0.192924 58.478645 400.064545
-0.218699 60.091297 395.494629
-0.194733 58.523129 394.249725
-0.089332 54.414906 398.997772
-0.136723 57.958424 395.155975
0.074729 56.189587 402.840057
0.086470 57.112488 401.841187
0.046835 59.517139 397.784424
0.062971 59.688454 397.219574
0.097780 59.026558 399.165619
0.091411 55.656025 397.971436
0.132638 58.225475 400.562134
0.166587 58.717220 399.679016
0.111086 60.042416 394.725830
0.136396 59.904568 395.981903
0.162656 57.221466 396.320221
0.179642 59.743988 394.152222
0.250709 56.104458 397.623871
0.239145 56.809448 396.900085
0.317781 59.819069 396.727905
0.338966 57.684589 395.549683
0.406644 59.231953 398.392731
0.447102 55.289272 403.370941
0.403264 60.036678 395.342529
0.508415 58.940533 393.649048
0.601604 55.740627 403.035126
0.592937 59.555744 397.579590
0.613849 54.718605 398.809601
0.557648 58.081615 394.996368
0.690869 55.155617 398.514404
0.761364 58.794777 399.448578
0.712898 58.458107 394.354279
0.796963 57.677681 401.102264
0.795272 54.380287 403.838715
0.794760 59.883545 395.975555
0.922326 56.376190 402.400848
0.870883 56.816223 396.765472
0.872509 59.898754 394.658752
0.896583 57.832954 395.373749
1.020245 54.950848 403.445038
0.994424 59.965584 395.344849
1.071308 57.286816 401.416138
1.111099 55.446106 398.224213
1.137996 56.831234 401.945831
1.176568 57.873547 400.603180
1.256638 54.559669 398.860199
1.206799 59.594147 394.057159
1.278671 59.577137 397.508759
1.331859 55.982643 402.607605
1.275356 57.472851 395.739899
1.292216 57.076447 396.400146
1.328514 55.844990 397.779541
1.325354 54.994087 398.478302
1.322959 59.796967 396.522705
1.374749 54.380135 403.612244
1.402179 55.492054 402.960938
1.429563 56.270638 397.280701
1.473309 58.339245 399.877106
1.503569 59.253460 398.248474
1.445188 59.932735 395.011230
1.537439 58.983379 398.748474
1.550473 54.989540 403.182739
1.526285 59.957790 395.566986
1.553510 58.656200 393.609436
1.696280 57.318756 401.218475
1.759944 56.322407 402.282593
1.741055 57.302704 396.025970
1.781932 57.750122 395.307922
1.860584 56.841747 401.573944
1.791364 58.278542 394.482788
1.831031 56.796383 396.589111
1.890666 54.787544 398.591522
1.935781 57.989422 400.285004
1.996101 55.951305 397.530731
1.997341 55.362984 398.079926
2.091275 59.246399 397.921722
2.093168 55.740261 402.631287
2.118217 58.575619 399.263641
2.036250 58.386410 393.297943
2.061892 59.797127 395.708832
2.205738 59.451942 397.100372
2.175754 59.580379 394.518860
2.280446 54.802258 403.208313
2.238750 57.928711 394.935028
2.279327 56.539467 396.859711
2.325089 57.178059 401.241669
2.433644 58.283142 399.636688
2.380613 57.395863 395.771301
2.440702 54.537910 398.641876
2.475900 54.994793 398.333954
2.517926 56.284454 402.066437
2.459666 59.001442 393.978851
2.549238 59.646149 396.184937
2.617925 57.362610 400.720398
2.712869 58.679134 398.999634
2.689042 55.740517 402.413818
2.699003 55.822945 397.508636
2.655928 58.097687 394.551605
2.686672 57.607777 395.262482
2.778349 59.117310 397.889740
2.824314 58.889412 398.381714
2.852556 58.213661 393.592926
2.924236 56.449390 401.674591
2.913114 56.312084 397.018463
2.927664 55.305744 397.934540
2.956935 56.858898 396.195129
2.998250 55.105408 402.640594
3.038810 58.251118 399.450287
3.099013 57.730446 400.210327
3.077625 59.504524 396.417389
3.059576 59.319691 394.464874
3.115651 54.738655 398.381226
3.129239 59.626373 395.379333
3.201876 58.430630 394.073730
3.323263 59.232922 397.226501
3.461433 58.762581 398.322479
3.390049 57.601105 395.040863
3.411980 59.378632 394.926178
3.451092 56.243885 396.831207
3.452222 55.492207 397.553070
3.613206 58.134041 399.208679
3.543734 58.024242 394.381470
3.617430 57.093075 400.670105
3.634412 56.341228 401.420197
3.645530 57.193359 395.555634
3.636082 59.029613 394.382965
3.663873 56.891785 396.080353
3.708391 59.240261 396.713501
3.772587 59.022778 397.506470
3.980462 57.665997 399.722534
3.991877 55.797279 401.806244
3.976061 55.797932 397.151428
3.981798 54.793209 397.941132
3.996661 59.346600 395.981018
3.982399 58.661507 393.930573
4.012558 59.228210 395.105865
4.093421 57.332623 400.153168
4.155564 58.203838 398.911896
4.128530 54.989349 402.238617
4.087259 58.158161 394.209747
4.153228 55.388344 397.468231
4.225992 58.751629 397.748291
4.240708 56.731037 396.098602
4.270036 57.728596 394.548767
4.337821 58.979500 394.647949
4.440067 55.971188 396.746185
4.551927 58.284206 398.490845
4.633713 56.677826 400.690430
4.667594 58.510864 397.985352
4.635091 55.622284 401.632263
4.634527 57.321411 394.999268
4.651357 56.909931 395.553436
4.710211 57.467129 399.557220
4.731822 58.022655 398.946259
4.724599 59.089230 396.039642
4.762001 58.837025 397.221252
4.762848 56.127308 401.126923
4.770628 57.158264 400.105804
4.824660 54.379677 402.356140
4.910227 55.267635 397.330383
4.919426 58.717785 394.511444
5.138873 58.200100 398.485718
5.104361 56.522774 395.926422
5.151599 56.442413 400.697296
5.171239 59.014507 395.452240
5.211065 54.706615 397.636444
5.280750 57.818306 398.859467
5.251444 58.283459 394.293304
5.317509 57.279884 399.621063
5.305116 55.548229 401.324707
5.399736 58.412445 397.595306
5.382827 56.701214 400.211121
5.384299 54.849926 401.770691
5.479761 55.916302 396.465790
5.542856 58.760555 396.475067
5.522507 56.023037 400.789154
5.511298 57.346607 394.758942
5.545315 55.384071 396.935028
5.572874 56.595234 395.545258
5.722143 54.824757 397.254852
5.755732 57.940895 398.452881
5.782605 58.489040 397.096527
5.819830 57.387646 399.210999
5.867151 58.772511 395.507568
5.928110 56.997810 399.751190
5.909612 55.901314 396.024170
5.933973 54.369625 397.534302
5.965505 56.966610 394.966248
6.000196 58.615437 394.988251
5.998198 54.754482 401.389618
6.028209 55.600483 400.891724
6.060559 58.653210 396.134003
6.061771 57.349415 394.412415
6.137042 55.045193 396.849945
6.172004 57.940907 397.994904
6.178703 56.476715 400.054047
6.241841 57.491608 398.704163
6.228092 58.249264 394.624115
6.367945 58.325783 396.900757
6.435363 55.728199 400.441589
6.442861 56.168171 395.793213
6.497413 58.528877 395.380157
6.596182 58.465343 395.955475
6.606426 57.983669 397.319885
6.604003 56.487270 399.575439
6.606535 55.215130 396.455505
6.683292 57.642963 394.357513
6.723663 54.725777 396.793274
6.814451 57.461617 398.439789
6.897343 56.874043 399.181580
6.895538 56.805752 394.661804
6.901035 55.073833 400.755432
6.956406 58.270344 395.168854
7.012444 57.711987 397.582520
6.990463 54.508606 401.101898
7.020295 55.701275 400.236755
7.071637 58.030220 396.884857
7.152827 57.968719 394.723175
7.176567 58.163586 396.121063
7.262016 54.918251 396.214203
7.271313 55.743805 395.495697
7.339972 57.341309 398.037811
7.328224 56.081104 395.028778
7.578383 57.724285 396.808441
7.549653 55.586586 399.995453
7.571119 56.856964 398.521454
7.584326 57.499554 394.574799
7.720884 58.016567 395.959869
7.725666 55.327057 395.462982
7.720445 54.364410 396.404297
7.791167 56.041798 399.254089
7.834589 57.880676 395.163483
7.818548 55.107525 400.112579
7.844327 56.443794 398.830505
7.917642 56.652431 394.464600
7.988363 54.310909 400.605957
8.121017 57.101509 397.541809
8.113722 55.672817 394.744720
8.206256 56.531185 398.318695
8.267097 54.757568 395.706665
8.405099 57.502666 396.347870
8.456359 57.472084 395.158356
8.588020 57.563354 395.707672
8.604229 57.067596 396.835449
8.717452 56.128590 394.498749
8.712350 54.358425 395.646088
8.742400 55.212440 399.244995
8.737864 54.340893 399.896149
8.758400 56.381695 397.921753
8.774274 56.792580 394.663696
8.792515 55.659760 398.805420
9.020095 56.661648 397.345093
9.058396 55.251930 394.756317
9.089748 55.881145 398.284576
9.185775 56.811733 396.751495
9.213978 54.683022 399.230133
9.259326 57.048389 395.790283
9.311577 55.937206 394.608276
9.315110 56.096802 397.704193
9.332033 56.450039 394.924316
9.492196 56.708645 396.195740
9.560699 55.551868 398.060028
9.590530 56.590816 394.391815
9.606326 56.257484 397.081696
9.713462 54.658566 398.852661
9.740215 55.058735 398.361542
9.759242 56.359558 396.512726
9.833489 56.398731 395.253052
10.022799 56.392727 395.986420
10.067726 55.710323 397.074005
10.126143 55.441193 394.763062
10.123174 55.383240 397.548645
10.149620 54.471706 394.738251
10.185980 55.988789 394.667358
10.185636 54.526760 398.286774
10.396737 56.047218 395.557220
10.515553 55.492336 396.730835
10.543406 55.719032 396.137451
10.574975 54.462891 397.804993
10.765338 54.678211 397.278137
10.891762 55.350948 395.714020
11.037026 54.647449 396.685608
11.067161 55.169575 394.897858
11.106784 54.816994 395.970856
11.366679 54.552193 394.997894
-13.945699 52.751900 393.659637
-13.875900 51.741646 394.329834
-13.878059 52.271961 394.592346
-13.863894 52.150463 393.116211
-13.834378 53.554474 393.311462
-13.759834 51.269451 395.071259
-13.777823 52.900757 394.650970
-13.720435 51.549671 395.673218
-13.669026 52.341290 395.522064
-13.707132 52.912991 392.219604
-13.598905 50.498005 395.063141
-13.692415 54.089569 393.173645
-13.570952 50.882050 395.799286
-13.566886 52.048534 393.904907
-13.594550 53.819508 391.943817
-13.571280 53.942013 393.951965
-13.452713 49.957462 396.076263
-13.491656 53.518280 395.307556
-13.422576 51.206738 396.404724
-13.421918 50.924267 394.724091
-13.485521 53.581238 392.529846
-13.339519 49.650814 396.922394
-13.410156 51.584866 393.555725
-13.375607 52.908455 396.316986
-13.386516 53.186695 395.803040
-13.286832 50.286995 395.606903
-13.303131 52.368927 396.514587
-13.278731 51.332928 397.071747
-13.353548 53.955261 394.951569
-13.210083 50.482704 397.174774
-13.138804 49.739368 395.306488
-13.111483 49.264271 395.877625
-13.145607 51.086750 394.159210
-13.145968 53.704041 396.074921
-13.078008 51.733814 397.474701
-13.074984 52.551861 397.055023
-13.063278 53.175758 396.714661
-12.957881 49.400036 397.618134
-13.067039 53.058277 392.268463
-12.915596 48.688267 397.651520
-12.966316 50.561207 394.743134
-12.920764 51.198944 397.972412
-12.991953 52.722088 392.784851
-12.846407 49.832256 398.165771
-12.849197 50.605263 398.224670
-12.778771 48.076942 396.936279
-12.761616 49.066311 398.271210
-12.744822 49.016911 396.522797
-12.837070 53.641205 396.977173
-12.828087 54.016121 396.502686
-12.798183 52.007565 393.484497
-12.747264 51.750172 398.192566
-12.672234 48.266254 398.140442
-12.686444 52.868610 397.732635
-12.706596 54.160290 392.094452
-12.592000 52.320843 398.319611
-12.619639 53.597725 392.436981
-12.505285 47.553448 398.009613
-12.508941 50.382305 398.814423
-12.478732 48.702927 398.822845
-12.489621 51.610851 398.797760
-12.405427 48.119682 397.513977
-12.454526 50.415508 394.994843
-12.506858 52.891548 393.172119
-12.408105 49.382404 395.687195
-12.394548 47.391827 397.240967
-12.463950 51.910702 394.062592
-12.444659 53.998554 397.332367
-12.356303 50.802334 399.198242
-12.333477 49.141178 399.176544
-12.309517 49.991253 399.199707
-12.327602 52.521832 398.788971
-12.264500 48.844433 396.106903
-12.251456 46.923874 398.111542
-12.293899 51.425068 394.571625
-12.204353 47.674038 399.044006
-12.184649 49.571712 399.601715
-12.186976 47.174908 398.661652
-12.142158 53.463161 398.648010
-12.047084 46.742611 397.540497
-12.112604 52.515472 394.205322
-12.119456 53.347664 393.177734
-11.957118 47.779755 396.775635
-11.982579 52.080189 399.610626
-11.944315 49.438923 396.136383
-11.967877 46.376095 398.501160
-11.943008 50.254135 395.676849
-11.908753 48.350529 396.365204
-11.929454 51.175499 399.784271
-11.933032 51.469635 395.077728
-11.854827 48.745342 399.881683
-11.840902 46.791283 399.198578
-11.822546 50.576916 400.055847
-11.810218 49.943401 400.159546
-11.804612 46.246532 397.826935
-11.790469 53.116596 394.024750
-11.794509 53.949841 393.078552
-11.785894 53.586079 393.590363
-11.726857 45.781033 398.274353
-11.677001 47.643322 399.975952
-11.640044 51.081089 400.289154
-11.632880 53.871346 398.996399
-11.565878 47.278675 397.239136
-11.531396 49.133808 400.468109
-11.571300 52.595119 394.803619
-11.467897 51.621105 400.467590
-11.484872 53.308472 399.680267
-11.460943 46.708351 399.833832
-11.448171 50.640572 396.047516
-11.470676 51.898327 395.429657
-11.393418 47.730206 396.916656
-11.401016 49.719341 396.394043
-11.424294 52.308144 400.278961
-11.401713 45.799030 397.708496
-11.393876 45.883755 399.351288
-11.330093 54.041256 393.505707
-11.220515 49.235516 396.676910
-11.203177 47.378338 400.551422
-11.185731 50.151913 400.835022
-11.104288 52.000771 400.854980
-11.074579 50.992970 401.001312
-11.084888 52.862831 400.606750
-11.021547 48.311714 397.046875
-10.996097 48.785900 401.131500
-10.978752 47.331432 397.219177
-10.987290 49.762764 401.207214
-10.983697 52.627552 395.398773
-10.996982 53.599087 394.580200
-10.926098 47.731388 400.955780
-10.911959 45.438305 397.927094
-10.915420 45.801693 400.129608
-10.891167 51.853241 395.948822
-10.830451 48.880516 397.058105
-10.850619 54.056988 400.170197
-10.824901 53.591652 400.525635
-10.775441 51.591755 401.257233
-10.763519 49.259567 401.420441
-10.754080 48.272755 401.268524
-10.769345 46.447487 400.636536
-10.737288 51.299984 396.354950
-10.665539 52.458107 401.192413
-10.650002 50.104462 396.986877
-10.649767 53.228455 401.059296
-10.607599 50.759007 396.802704
-10.628581 45.873577 400.621124
-10.590954 46.758144 397.514740
-10.499906 50.459316 401.712433
-10.472869 48.229939 401.788788
-10.508289 52.555672 396.044220
-10.456882 47.593304 397.468445
-10.457788 53.106201 395.633636
-10.399035 53.877682 400.866425
-10.332582 48.515072 397.566711
-10.347042 46.808838 401.480042
-10.312312 51.979580 396.409271
-10.232515 51.552742 402.033813
-10.253531 45.446449 397.802307
-10.253352 53.695675 395.382172
-10.219793 51.409920 396.745514
-10.197146 52.808926 401.751038
-10.196585 46.139889 401.205109
-10.199333 45.479298 400.882050
-10.109734 49.812130 397.518524
-10.051855 53.555325 401.473724
-10.016994 49.242413 397.684937
-9.999596 47.806602 397.833099
-9.975743 49.852840 402.371796
-9.977857 51.100231 397.219727
-9.966722 52.892666 396.214600
-9.944009 54.220203 401.280975
-9.949240 52.406502 396.646942
-9.914433 46.883484 397.907684
-9.858269 52.306507 402.212250
-9.830458 46.766525 401.963196
-9.816304 48.549694 402.354828
-9.808676 48.508343 398.025970
-9.781366 47.580032 402.300293
-9.788553 50.568737 397.548737
-9.706433 50.778557 402.636688
-9.663955 49.092537 402.643677
-9.643951 50.003235 397.753632
-9.551635 48.072552 402.602753
-9.554889 54.030483 401.780731
-9.566694 53.414497 396.235687
-9.487399 52.622822 402.632904
-9.481437 54.215816 395.748108
-9.467814 45.651344 401.769775
-9.486519 51.521645 397.302734
-9.468773 45.977428 398.092743
-9.432308 47.070217 402.467651
-9.446008 47.237965 398.229279
-9.443643 52.268368 397.010712
-9.315423 49.488338 402.977753
-9.323195 46.392960 402.341736
-9.279475 47.573730 402.693939
-9.323855 51.133160 397.710236
-9.264862 51.874035 402.889435
-9.284942 49.544857 398.198334
-9.225243 51.186897 403.081055
-9.204461 53.352886 402.381500
-9.166130 48.322811 402.985107
-9.144982 48.914066 403.046356
-9.135380 48.391132 398.466888
-9.045823 50.487484 403.171051
-9.054311 54.069923 396.156464
-9.014123 52.461109 403.040985
-9.010437 52.809875 397.087250
-8.989541 51.669106 397.585663
-8.891444 46.857304 402.837830
-8.958853 50.780075 398.027588
-8.936332 50.182602 398.196991
-8.866684 46.725410 398.545135
-8.819509 45.503277 402.513092
-8.810182 46.101727 402.774506
-8.757170 45.659721 398.353607
-8.722686 49.344326 398.533295
-8.671602 47.520386 398.733826
-8.627154 53.926891 396.564667
-8.625500 52.219570 397.650604
-8.594941 48.848415 398.815765
-8.497008 47.208576 403.296448
-8.568521 53.488766 396.957611
-8.522287 52.868816 403.130951
-8.477520 49.625443 403.653839
-8.426713 48.747723 403.624146
-8.438621 46.996563 398.797791
-8.386599 45.555096 402.895905
-8.341895 51.327179 403.647766
-8.405359 50.925732 398.296478
-8.241984 47.764217 403.558929
-8.264576 48.379604 398.972961
-8.175372 46.392124 403.314941
-8.193962 53.839161 402.785522
-8.072271 52.486420 403.569366
-8.091227 45.529118 398.710297
-8.045970 46.219204 398.926758
-8.080701 50.391415 398.705658
-7.994552 54.245766 396.854553
-8.041543 49.437614 399.079895
-7.920493 46.940453 403.617767
-7.908968 50.505894 404.035919
-7.912126 47.320126 399.167786
-7.817535 45.934566 403.288391
-7.926675 52.126690 398.143646
-7.810719 51.143360 404.083221
-7.760177 48.962769 404.137604
-7.827273 51.536175 398.481720
-7.668024 47.729004 404.006500
-7.667120 49.616238 404.184296
-7.679892 53.629696 403.255798
-7.714609 53.330547 397.545746
-7.591419 52.753681 398.128510
-7.529771 45.743656 398.961517
-7.439955 50.246502 404.283508
-7.418017 46.179417 403.737183
-7.469963 54.067410 397.199219
-7.448084 51.826427 404.063934
-7.384152 48.388214 404.197937
-7.409822 53.156521 403.742340
-7.381607 54.223114 403.285309
-7.443845 48.583359 399.437958
-7.457488 51.266823 398.884888
-7.374552 47.082722 399.267212
-7.350803 47.730740 399.373505
-7.178445 45.384247 403.608612
-7.309237 49.836678 399.379486
-7.155642 48.898983 404.379089
-7.197394 53.705044 397.727173
-7.017063 52.682995 404.073608
-6.971059 47.838966 404.303162
-7.117467 49.317333 399.588745
-6.969375 49.464554 404.425140
-6.970356 50.629787 404.432953
-7.068431 52.463367 398.536102
-7.065181 51.745411 398.832245
-7.008903 50.314354 399.243774
-6.821173 46.901405 404.129852
-7.001419 50.916100 399.175568
-6.878629 46.406464 399.359650
-6.815105 53.416992 403.968536
-6.740178 51.559917 404.456146
-6.798470 47.209229 399.516479
-6.670360 48.464764 404.484100
-6.618502 45.539825 404.015594
-6.556024 45.452374 399.221893
-6.629219 49.858925 399.618530
-6.395541 47.872360 404.575775
-6.425362 54.244221 403.807220
-6.334159 52.243000 404.436005
-6.280062 48.929821 404.726196
-6.286652 49.607586 404.823090
-6.442644 52.852741 398.773956
-6.383573 53.396027 398.423126
-6.439871 52.134590 398.967743
-6.374862 48.470764 399.755768
-6.226153 45.975830 404.311401
-6.376687 51.198296 399.252686
-6.161798 50.281364 404.793671
-6.340569 50.458023 399.538391
-6.251674 47.507614 399.701904
-6.137983 54.287594 397.883148
-5.981843 46.538605 404.599701
-5.931493 48.288631 404.784363
-5.961360 45.481979 399.402008
-5.889787 47.316002 404.629517
-5.897865 51.620403 404.810242
-5.896831 53.749306 404.265350
-5.866668 50.947922 404.822479
-5.928963 52.402588 399.073700
-5.927706 51.744263 399.309570
-5.786582 46.440788 399.792786
-5.819967 53.583130 398.519287
-5.669278 45.647770 404.507996
-5.753986 47.688435 399.925354
-5.586874 52.367764 404.742615
-5.756404 50.916901 399.606842
-5.512012 45.889874 399.534668
-5.627670 49.485439 399.926697
-5.393652 49.756615 405.066864
-5.361446 47.122452 404.931244
-5.362695 54.215698 404.167450
-5.517602 50.055912 399.854919
-5.304588 48.152618 404.773102
-5.454063 53.236111 398.913788
-5.366310 47.051659 399.829956
-5.472725 52.158588 399.362152
-5.232698 48.896511 404.834259
-5.313848 54.276966 398.326111
-5.364315 48.231918 399.945160
-5.203845 53.532146 404.546600
-5.221051 46.297646 399.776947
-5.093961 45.942749 404.579437
-5.019097 46.572178 404.941010
-5.006564 50.913998 405.082336
-5.101670 47.667400 400.050201
-4.983902 52.998241 404.763306
-4.842689 49.319130 405.163666
-4.836411 50.204632 405.177216
-4.933544 50.273582 399.960815
-4.719163 48.361137 405.159363
-4.853866 52.395863 399.392792
-4.654191 45.612911 404.907501
-4.671672 52.101910 405.004150
-4.817961 49.684017 399.998505
-4.655005 45.609703 399.719452
-4.737728 49.012402 400.109039
-4.526287 47.415558 405.205414
-4.599144 47.178177 399.985413
-4.462685 53.703541 404.624725
-4.490744 53.872223 398.846588
-4.393306 50.585678 405.200287
-4.489612 53.023800 399.329712
-4.516233 50.974834 399.937134
-4.419649 47.745934 400.250336
-4.263164 46.493214 405.142639
-4.299452 54.266926 404.400848
-4.344985 46.608204 400.029297
-4.240617 46.007538 404.847382
-4.174620 49.958847 405.306976
-4.315660 52.235901 399.635468
-4.249511 48.307083 400.366180
-4.086547 49.296364 405.361053
-4.025174 53.123737 404.813812
-4.008567 45.800537 399.844086
-3.935941 45.658619 405.234131
-3.917645 51.481098 405.065002
-4.047321 49.764839 400.203918
-3.931481 52.766064 399.493988
-3.772763 50.643757 405.276611
-3.684327 48.072132 405.416168
-3.667265 46.637173 405.318268
-3.705210 52.587585 405.044769
-3.641758 53.893604 404.657990
-3.700212 48.497749 400.370178
-3.543154 49.794651 405.431488
-3.515147 47.254230 405.370270
-3.523533 51.954617 405.160980
-3.613661 53.321911 399.426239
-3.512911 46.666603 400.268250
-3.477650 47.557293 400.305298
-3.503022 49.202419 400.331696
-3.451196 49.801472 400.287292
-3.309590 53.113686 404.898041
-3.403315 52.062347 399.842377
-3.215426 45.845490 405.339325
-3.183986 50.278324 405.398773
-3.203570 45.871475 400.079346
-3.140276 49.369545 405.465179
-3.103227 46.878857 405.473969
-3.066611 47.586578 405.229645
-3.224024 50.779907 400.226074
-3.194588 52.779083 399.663940
-3.048520 51.205818 405.086639
-3.005035 48.718151 405.486969
-3.097322 48.549152 400.461700
-3.009618 52.457180 405.043549
-2.861272 53.549805 404.740479
-2.836664 49.798340 405.229309
-2.782938 54.107769 404.480804
-2.778118 49.486446 400.492340
-2.698766 53.291016 399.521942
-2.615176 46.467953 405.175476
-2.579964 47.675957 405.533661
-2.609110 45.733570 400.227020
-2.616346 46.673275 400.307373
-2.650567 51.573456 400.147522
-2.547721 48.031116 400.481903
-2.525852 52.506569 399.908264
-2.365201 51.173939 405.250488
-2.263002 49.547844 405.516907
-2.232131 48.452984 405.285339
-2.256401 52.179287 404.885376
-2.168416 47.280396 405.301941
-2.238925 50.012886 400.375458
-2.182438 53.056782 399.778534
-2.118418 45.425499 405.408783
-2.163744 51.980480 400.077179
-2.088612 53.883472 404.546600
-2.058884 47.960354 405.561401
-2.118130 50.841671 400.356079
-2.073270 53.593391 399.450653
-2.088055 48.400429 400.616302
-2.087933 49.096935 400.522522
-1.895324 46.117596 405.215027
-1.876389 45.820221 400.323608
-1.845166 50.573681 405.335144
-1.826739 53.153095 404.831085
-1.761974 48.707458 405.557587
-1.731256 52.665985 399.966858
-1.738207 46.951885 400.482544
-1.594233 49.316456 405.284485
-1.594445 47.803650 400.573883
-1.529865 51.893597 400.127533
-1.488489 54.229961 404.359436
-1.486992 51.537750 405.171661
-1.453751 53.308002 399.638000
-1.420972 46.203243 400.398956
-1.367816 46.262035 405.526978
-1.359922 48.867535 400.515228
-1.291513 47.245399 405.620117
-1.274762 52.583828 404.943237
-1.278299 50.098652 400.497864
-1.261515 51.337585 400.352692
-1.173767 54.232510 399.123840
-1.167139 48.674923 405.577698
-1.155580 47.937847 405.507019
-1.171611 46.711876 400.523163
-1.128570 52.438496 399.933624
-1.140667 45.518150 400.287354
-0.970022 49.571072 405.473572
-0.959000 53.675606 399.379395
-0.903931 50.154282 405.422607
-0.847772 52.069050 404.812317
-0.824380 54.256481 404.248291
-0.800461 51.702526 400.140106
-0.779702 53.226540 404.727386
-0.757174 49.294350 400.640350
-0.684606 53.165504 399.693207
-0.714504 47.147652 400.638794
-0.608173 48.579880 400.643890
-0.583182 50.997192 400.375824
-0.505747 52.447945 400.056244
-0.527912 45.907280 405.508850
-0.530817 48.184460 405.518890
-0.516107 47.877563 400.635071
-0.464469 51.361385 405.148804
-0.333101 47.165722 405.373749
-0.322380 50.037106 405.279938
-0.280913 52.473610 404.603760
-0.273062 46.169262 400.420837
-0.212556 51.906441 400.174988
-0.201789 46.522243 405.553436
-0.170758 53.874142 399.468964
-0.076059 49.666565 400.542725
-0.115942 50.673050 405.238495
-0.009578 45.425270 405.393097
0.005554 47.919064 405.521332
0.093958 53.013058 399.665039
0.104558 48.264164 400.700989
0.086824 47.040028 400.526245
0.090231 49.372776 405.349884
0.143193 48.939205 400.613739
0.129298 53.947182 404.193024
0.155721 53.391174 404.419403
0.185501 48.631599 405.450500
0.197473 45.390312 400.212921
0.277989 50.683704 400.367157
0.272006 52.391792 400.008636
0.246604 51.733089 404.885040
0.357247 51.648689 400.152679
0.330487 49.899307 405.245178
0.350094 46.378189 405.469940
0.346345 52.350788 404.770996
0.573456 54.234875 399.203339
0.705710 49.445980 400.621429
0.733839 48.098324 400.639740
0.728192 50.944866 404.987030
0.797290 47.469570 405.385376
0.808611 51.568493 404.816437
0.920947 50.921154 400.454407
0.865783 50.248760 405.153717
0.966889 52.815285 399.828156
1.019680 50.162537 400.451752
0.963480 47.538738 400.574432
0.981538 45.648540 400.242065
1.076316 52.083416 400.138977
1.012376 46.593342 405.375183
1.013446 52.723194 404.444061
1.051045 48.205421 405.269928
1.052096 45.534466 405.295624
1.047435 52.133278 404.613525
1.122492 49.190113 405.261444
1.164191 46.347633 400.398285
1.266622 53.681988 399.442841
1.306374 48.572536 400.577667
1.302156 50.645176 404.958069
1.357893 47.039806 400.504303
1.447611 51.362957 400.248383
1.457646 49.776226 400.517731
1.492268 48.035530 400.555664
1.445529 51.340786 404.727783
1.455475 46.201633 405.346375
1.564799 50.773159 400.449829
1.500527 53.399166 404.101654
1.628237 53.217690 399.609528
1.622383 51.966694 404.458069
1.762985 45.427608 400.167358
1.856328 49.724686 404.992554
1.876374 45.997066 400.273926
1.902494 47.402172 400.585175
2.001487 51.763485 400.051239
1.944239 50.430958 404.856689
2.128788 51.162685 400.278320
2.028362 47.930828 405.163055
2.042673 46.719181 405.214935
2.056988 51.155930 404.635162
2.075073 49.147507 405.001038
2.079399 48.549892 405.134216
2.152397 48.264381 400.522491
2.166620 46.771690 400.427643
2.186582 52.022243 404.333740
2.199004 54.244503 403.439209
2.231935 52.633949 404.117523
2.373637 52.603382 399.770111
2.367794 47.445435 405.066010
2.446010 47.720364 400.443451
2.500532 53.946411 399.043915
2.564708 48.705669 400.423553
2.491701 53.399689 403.868866
2.626657 51.639820 400.114136
2.554166 46.247635 400.270508
2.645782 49.458382 400.432892
2.558391 49.819859 404.775604
2.572458 48.107098 404.924286
2.672598 53.269325 399.365631
2.589667 50.416084 404.687134
2.676321 48.674461 404.963989
2.791197 50.046978 400.366791
2.700793 51.715218 404.252869
2.716707 51.064045 404.439789
2.861899 51.003929 400.234650
2.757638 45.922222 405.000458
2.823823 46.945461 405.018860
2.848744 52.432014 404.103424
2.985213 52.138546 399.848053
3.029744 46.869083 400.281952
3.075968 45.803810 400.183899
3.079956 53.684906 403.409058
3.084958 49.026917 404.750366
3.160713 48.459072 400.404083
3.147604 50.344616 404.534515
3.309871 51.477383 399.972382
3.290500 53.031910 399.431549
3.319162 50.988705 404.244202
3.353614 54.191010 403.100037
3.448251 47.406490 400.357025
3.527697 50.875885 400.066376
3.454144 46.354626 400.256683
3.423326 46.966621 404.733124
3.416137 51.597073 404.079315
3.455160 48.036217 404.678192
3.561129 49.531715 400.236847
3.675526 52.012733 399.764496
3.592831 53.347820 403.429443
3.702269 53.964294 398.729950
3.661861 46.237019 404.692169
3.657725 49.603134 404.563568
3.673505 50.305782 404.279755
3.879690 51.400726 399.823914
3.786654 45.856300 400.100311
3.892277 48.467632 400.286865
3.836585 52.436920 403.595306
3.887672 54.247223 402.834106
3.928594 47.355976 404.522186
3.940897 50.821804 404.139557
3.972509 49.040630 404.394287
4.024087 46.521355 400.091858
4.112598 50.601746 400.036102
4.142834 49.919617 400.113922
4.080569 46.709629 404.559906
4.103965 45.389263 399.838013
4.070807 51.421246 403.915588
4.113909 53.632519 403.082001
4.211523 54.092129 398.451904
4.353723 52.559986 399.314667
4.410227 51.129204 399.837860
4.413149 47.930840 400.135498
4.358463 48.323807 404.393524
4.356593 50.007595 404.079437
4.446202 54.040161 402.639252
4.492234 46.967979 400.029877
4.435607 52.122921 403.459412
4.462412 49.346291 404.223694
4.564791 45.994671 399.963135
4.569879 47.334057 404.437988
4.721014 51.949566 399.455902
4.648369 52.638569 403.270447
4.803473 50.192097 399.954193
4.796654 53.327820 398.717102
4.712902 51.423737 403.524658
4.759620 46.134754 404.349182
4.898894 48.960808 399.947937
4.926873 51.316841 399.609589
5.083782 49.526703 399.918396
5.061965 46.696087 399.827423
5.143076 52.297047 399.222626
5.154570 48.428082 399.896301
5.126438 54.226532 398.010254
5.194993 50.787251 399.665894
5.095778 52.858162 402.878357
5.105105 52.284863 403.115082
5.164800 47.116310 404.160004
5.136257 50.804852 403.569275
5.202929 45.659847 399.659149
5.173998 49.303303 403.852844
5.383016 50.053486 399.667572
5.401879 47.213783 399.796234
5.454281 51.404060 399.351776
5.382686 46.202744 404.053070
5.346738 50.041500 403.679321
5.398185 51.556301 403.239960
5.533026 52.559948 398.830414
5.528423 46.275318 399.554443
5.477874 48.450130 403.949127
5.537935 53.780689 402.248535
5.678665 48.157009 399.695068
5.623703 52.704250 402.726501
5.772259 49.548889 399.663300
5.833647 50.928143 399.398224
5.919595 52.883053 398.545227
5.836712 52.033180 402.936615
5.849046 50.460564 403.335602
5.878087 53.220375 402.372101
5.994980 53.427509 398.170410
5.960553 45.667744 399.304901
5.909023 51.132385 403.112671
5.986051 49.086884 403.488159
6.119833 51.835125 398.947601
6.049290 46.546379 403.743164
6.078763 45.981518 403.682343
6.180630 51.254345 399.014923
6.066183 49.771515 403.314850
6.231001 46.459003 399.411957
6.208276 47.111778 403.598511
6.200906 48.080578 403.610718
6.220798 51.541992 402.845123
6.328001 50.298149 399.229645
6.351095 47.253979 399.381866
6.356672 48.676567 399.391663
6.297000 52.663784 402.404724
6.397947 50.305550 403.075195
6.498991 53.444092 397.742157
6.479104 54.242695 401.529266
6.687156 52.924496 397.994080
6.716434 49.419506 399.160278
6.690130 53.611725 401.736572
6.716213 48.309109 403.316589
6.803193 46.776173 399.202240
6.831500 52.427570 398.262451
6.818947 54.232796 397.132111
6.761842 52.346272 402.259827
6.862427 47.861965 399.231293
6.848963 45.490742 399.002930
6.806918 49.306065 403.061707
6.932250 53.709095 397.431183
6.897928 46.406307 403.254242
6.962643 51.871822 398.453033
6.896302 50.994549 402.608063
7.033057 50.852768 398.695099
7.027659 50.143951 398.862885
7.037092 47.328865 399.152496
7.090564 48.586380 399.034332
7.132441 47.459179 403.038818
7.222081 52.746990 397.782837
7.202219 53.390289 401.548676
7.249876 45.921417 402.979034
7.317571 52.157745 398.089569
7.218370 49.993256 402.617889
7.337327 46.248535 398.856415
7.385822 45.657772 398.752930
7.351948 51.459644 402.220856
7.441429 48.634766 402.761627
7.464916 46.963413 402.893158
7.496479 54.124081 400.983826
7.536410 48.822254 398.777832
7.571208 47.556122 398.843719
7.600362 53.793377 396.979736
7.666330 49.964718 398.502960
7.595757 51.999123 401.860413
7.700496 52.988983 397.400635
7.608911 50.308590 402.293884
7.638081 53.607052 401.223419
7.719384 51.679920 398.047577
7.631978 49.565060 402.529694
7.662209 47.592075 402.724487
7.646484 52.959057 401.440735
7.802235 46.792866 398.672424
7.815418 48.340725 398.594269
7.836072 52.308594 397.643158
7.865682 51.049038 398.072113
7.831672 45.641495 402.420197
7.830040 50.860382 402.048340
7.865079 48.149349 402.518890
7.954175 49.064213 398.452667
8.019611 50.349430 398.164764
7.989990 49.114609 402.375824
8.138120 45.740002 398.402496
8.231946 51.782745 397.656097
8.235702 52.943062 397.111786
8.189079 46.697968 402.382538
8.254847 50.518551 401.831268
8.249141 51.880768 401.535736
8.293000 53.424885 400.735535
8.344349 51.222778 397.788025
8.287008 51.086926 401.743805
8.410335 46.363449 398.294525
8.423790 49.440132 397.968384
8.398661 48.622845 402.134857
8.510207 48.240871 398.156281
8.466384 52.506832 401.147308
8.546542 46.988068 398.269592
8.582963 50.619152 397.626221
8.537127 47.789028 401.961609
8.572787 45.877949 401.796112
8.561774 49.574749 401.803741
8.700720 51.950256 397.191040
8.748543 45.624840 398.000122
8.769503 53.831890 396.102234
8.791076 51.260555 397.368988
8.807552 53.086758 400.498260
8.843253 46.884747 401.641205
8.903327 49.876713 397.732819
8.844700 51.724087 401.040283
8.984802 52.798420 396.540619
8.969304 52.331860 400.737152
9.050424 47.177120 397.844238
9.078942 48.597607 397.848114
9.060040 48.944839 401.550720
9.150591 53.951111 395.585175
9.145331 46.157337 397.746429
9.077559 51.014694 401.049713
9.175292 53.297607 396.093140
9.153884 45.676880 401.048737
9.248641 51.584015 396.983551
9.253831 50.798885 397.238434
9.231200 48.027466 401.365692
9.315521 49.446404 397.381470
9.315758 47.317722 401.285675
9.381843 46.728786 397.587311
9.315250 50.327198 401.099365
9.394035 53.596588 399.662842
9.393223 46.203697 400.973541
9.361815 51.775295 400.604889
9.420327 48.206860 397.550354
9.421869 46.183964 397.263611
9.372167 49.401386 401.234619
9.480652 52.250122 400.287415
9.544430 51.895992 396.600922
9.551135 50.033360 397.287445
9.579852 54.096138 395.126282
9.578977 52.831146 396.006317
9.585601 45.545071 397.448944
9.590911 47.366413 397.550934
9.628320 53.512337 395.546356
9.623199 48.624767 401.052307
9.632171 51.194252 400.580811
9.688663 47.023403 400.814575
9.746464 46.341408 397.829834
9.742194 52.963348 399.692200
9.708880 49.957077 400.850922
9.774005 45.767662 400.187683
9.762702 47.847134 400.829773
9.781748 51.666157 400.220856
9.864541 53.771862 399.080048
9.815043 49.382000 400.752991
9.929308 50.276989 396.866180
9.945873 52.115719 396.196625
9.957722 46.851299 397.474854
9.970893 49.009212 397.007080
10.087176 52.456936 395.720337
10.087749 45.638809 398.481537
10.110564 53.834408 394.835022
10.093723 50.830311 396.583099
10.026780 48.787090 400.600677
10.097038 48.339199 397.105591
10.071920 47.324902 400.376801
10.106624 49.706646 397.017151
10.187186 53.290802 395.244507
10.195328 51.617958 396.076508
10.195466 46.690353 399.957428
10.201911 48.113941 400.376068
10.222806 52.152901 399.641479
10.264545 45.904171 399.009033
10.257674 47.781406 396.893494
10.272036 47.296997 397.233459
10.264371 48.859043 396.234619
10.266951 50.432453 400.126831
10.267497 49.336250 400.182190
10.319078 46.369019 399.394012
10.331598 48.320446 396.512543
10.365726 46.352432 397.710663
10.425165 46.125881 398.377319
10.491608 53.877663 398.387665
10.437483 47.116741 399.690155
10.443498 47.639671 399.931244
10.520127 52.073517 395.523407
10.539122 52.993969 398.844330
10.563337 46.965187 397.641479
10.503489 48.701069 400.170654
10.597232 52.759113 395.321045
10.599109 49.104885 396.610748
10.577729 51.315987 399.557251
10.629062 49.826031 396.547913
10.620255 46.890308 399.162109
10.649888 50.605621 396.236145
10.671638 46.694660 398.159271
10.815055 47.528488 399.212494
10.806821 48.730591 399.649780
10.839544 48.170742 399.368134
10.868808 47.146385 398.602142
10.892493 48.451515 396.903381
10.940516 53.994759 395.010071
10.911965 47.453701 397.421722
10.931073 51.257057 395.665192
10.898378 49.808990 399.471008
10.964728 51.929962 398.827118
11.025818 52.756741 398.375641
11.072665 53.944202 397.396362
11.074733 52.281170 395.454468
11.122260 53.425060 395.050262
11.106171 47.756763 398.011932
11.115788 51.370392 398.718170
11.120562 48.318874 398.860992
11.237350 50.111835 398.966003
11.299248 50.139736 396.434296
11.269631 50.806988 398.772247
11.305308 50.673328 396.128754
11.366923 54.021008 396.708496
11.316957 49.279324 396.686249
11.381669 52.832741 395.343719
11.394656 53.253231 397.475800
11.343024 48.659317 398.343811
11.352820 49.255302 398.770813
11.407680 48.551525 397.211273
11.410224 51.712776 398.297546
11.450171 51.602089 395.751465
11.452109 52.352551 398.010101
11.500350 53.935543 395.170288
11.546738 54.049679 395.991333
11.642161 53.218288 396.896576
11.610952 49.645226 397.859375
11.616817 49.075779 397.518524
11.691429 50.527939 397.997742
11.701664 49.629620 397.273193
11.728002 49.865704 396.173462
11.750648 51.489075 397.551117
11.819463 53.236309 396.175690
11.861655 50.448196 396.360199
11.910598 50.433075 397.202606
11.954393 51.172207 396.433136
11.987510 52.664703 395.400238
11.972232 51.522472 396.905975
11.990005 52.278187 396.548065
12.014015 51.944820 395.520172
-11.307073 45.323105 398.696014
-10.884116 44.794670 398.927917
-10.828058 44.882900 398.089081
-10.669003 45.036694 399.862335
-10.546839 44.402702 399.389404
-10.384750 45.141003 400.394714
-10.339068 43.938049 398.957336
-10.243629 44.170628 399.933441
-10.068460 44.595428 400.463959
-9.889655 44.961258 401.015137
-9.838812 44.681980 397.950470
-9.744098 45.288445 397.984070
-9.670473 43.394604 399.157867
-9.654019 43.486515 399.733734
-9.626172 43.700520 400.301666
-9.447983 43.721786 398.510315
-9.449595 44.297596 401.161743
-9.369915 43.203484 400.205292
-9.354795 42.989666 399.637543
-9.227551 43.055241 398.995697
-9.128874 43.565334 397.959778
-9.045833 44.781025 401.960358
-8.986113 43.179867 398.408630
-8.966713 43.032318 400.676758
-8.951387 42.575939 399.412628
-8.928648 44.612732 397.995605
-8.867879 42.620037 398.776825
-8.715586 44.247700 401.837921
-8.655492 42.334541 399.934204
-8.529670 42.810642 401.016815
-8.494567 44.925617 402.510834
-8.450823 43.301716 401.557922
-8.429944 44.201885 398.321472
-8.433810 43.416615 398.116516
-8.350860 44.362076 402.301270
-8.336415 42.191189 399.173401
-8.250311 41.967831 400.132416
-8.075623 42.483479 401.238342
-8.038341 43.377857 402.076996
-7.946857 43.931652 402.437469
-7.920969 42.756100 398.335144
-7.811835 45.331676 403.250824
-7.819313 41.775867 400.683075
-7.805759 44.625942 398.594879
-7.697013 44.486767 403.056366
-7.752455 41.911983 398.761993
-7.735075 43.453625 398.304657
-7.711092 44.027447 398.467834
-7.609984 42.872353 402.027466
-7.607068 42.372047 401.613037
-7.578204 43.438427 402.476593
-7.490777 41.478664 399.329865
-7.384077 41.706921 401.216522
-7.359567 41.384274 400.451111
-7.252380 43.906582 402.995514
-7.228178 44.835293 398.834534
-7.191063 41.996181 401.791168
-7.160748 42.740334 402.455841
-7.233537 42.463287 398.488312
-7.211943 41.141808 399.863739
-7.205903 41.856441 398.586731
-7.156627 43.224861 398.357117
-7.027541 44.695580 403.574615
-6.993382 41.378590 398.862152
-6.936115 43.885872 398.666382
-6.897691 41.199947 401.010101
-6.852246 44.426205 398.832031
-6.834741 40.873711 400.380920
-6.677118 42.374065 402.527252
-6.669395 41.967388 402.125031
-6.674627 43.400803 403.160004
-6.634153 44.963783 403.972504
-6.691726 42.801685 398.400879
-6.487283 41.229794 401.624084
-6.557373 42.213440 398.291107
-6.499866 43.486240 398.621124
-6.524951 41.615398 398.454010
-6.477567 40.689838 399.853851
-6.372712 44.422787 403.850922
-6.383942 40.751442 401.061615
-6.294238 44.722157 399.065063
-6.311904 40.935005 399.067810
-6.266493 40.542934 400.398102
-6.086000 43.810257 403.787323
-6.109575 43.941845 398.849640
-6.126821 43.026318 398.549164
-6.071247 43.240925 403.492554
-6.005125 41.099987 402.051544
-5.926094 40.776604 401.552643
-5.984016 42.487835 398.436615
-5.865797 42.118847 403.020203
-5.864071 40.347149 399.943695
-5.755294 41.615147 402.635223
-5.729527 42.624172 403.393799
-5.732890 40.452168 400.980682
-5.770525 41.948105 398.384491
-5.646205 44.643631 404.410553
-5.584072 45.076046 399.312836
-5.626123 40.312263 399.377472
-5.512853 40.135376 400.464691
-5.504173 44.324852 399.118713
-5.535151 41.115330 398.432343
-5.444800 40.895573 402.117279
-5.372200 43.405735 404.031982
-5.343366 40.412243 401.557404
-5.310140 42.041328 403.207520
-5.338336 43.353973 398.732544
-5.314358 40.078587 399.838318
-5.233126 41.266716 402.693909
-5.207439 43.905865 404.335510
-5.261537 40.527782 398.826935
-5.180975 42.457264 403.661591
-5.072627 40.088406 401.021912
-5.046734 40.098022 399.281219
-5.046652 41.502159 398.281036
-4.965947 45.126507 399.478607
-4.833555 40.466320 402.070465
-4.887945 40.896687 398.450653
-4.791482 39.929352 400.325134
-4.693939 44.033352 404.623352
-4.729997 43.417477 398.893585
-4.654195 40.081543 401.576508
-4.610778 43.067875 404.226746
-4.644788 39.825180 399.705139
-4.653526 42.561085 398.575745
-4.573233 45.029694 404.659210
-4.563488 42.491116 403.902496
-4.517270 40.369812 398.589294
-4.427537 44.868610 399.440857
-4.418229 41.465904 403.274597
-4.392650 44.314648 399.376678
-4.388906 39.851223 400.957001
-4.341138 40.457123 402.502258
-4.277511 43.797390 399.182098
-4.227632 41.944538 403.748749
-4.270653 40.017864 399.193268
-4.192942 40.946785 402.988251
-4.213869 40.812435 398.189026
-4.051705 44.760811 405.020752
-4.091073 41.783005 398.373352
-4.056390 42.607788 398.664978
-4.004656 39.773613 401.517426
-3.879004 44.149654 404.711487
-3.883281 40.106274 398.480896
-3.809980 43.045540 404.607758
-3.783405 41.297009 398.324127
-3.772252 39.689816 399.162750
-3.704040 43.702438 399.217041
-3.698259 42.984646 398.973938
-3.670365 45.104012 399.695190
-3.666978 39.587597 400.122955
-3.598272 41.700012 403.958923
-3.617992 39.508106 400.916931
-3.570592 39.859417 401.988586
-3.457251 40.543324 398.321259
-3.435255 42.521420 398.743469
-3.413324 40.214855 402.549377
-3.362023 41.130920 403.600769
-3.289181 44.185673 405.101044
-3.210978 42.616276 404.691071
-3.207067 41.955708 398.603546
-3.176746 44.791271 399.820282
-3.171076 39.573906 401.602386
-3.145753 41.118755 398.247162
-3.058661 44.100502 399.535431
-3.026039 45.048256 404.987946
-3.027409 41.940228 404.280243
-2.984564 39.959488 402.277679
-2.942931 43.599854 399.373138
-2.939370 43.088955 399.179230
-2.892969 39.245808 400.925079
-2.865051 39.454315 399.979797
-2.865709 40.187321 398.463074
-2.777996 43.684235 405.094543
-2.754765 40.963379 403.626251
-2.680177 44.324162 405.034882
-2.646976 42.253765 404.587616
-2.597545 45.028454 399.919952
-2.618188 39.716713 398.933319
-2.506289 41.678974 404.275482
-2.523475 39.576805 402.007996
-2.516078 40.152111 402.740082
-2.508440 40.589645 403.276886
-2.486780 41.355732 398.420776
-2.466123 40.733402 398.206635
-2.305769 43.660469 399.467865
-2.277361 41.891407 398.656311
-2.221141 44.206261 399.671722
-2.220552 39.234768 401.163727
-2.205671 39.752964 402.454193
-2.122262 44.430759 405.328003
-2.084365 43.702572 405.239532
-2.076649 42.437958 404.834076
-2.103160 40.841602 403.634338
-1.995846 43.045929 405.053955
-2.005924 39.480473 399.171356
-1.952034 39.269890 400.500427
-1.930065 42.707390 399.079193
-1.920330 40.379448 403.200562
-1.895642 39.454414 401.770721
-1.866618 41.098743 398.415375
-1.875189 40.071026 398.366272
-1.792355 44.751926 400.057831
-1.818641 39.018524 399.887177
-1.700126 45.337448 400.175446
-1.756904 39.988354 402.718964
-1.694101 43.783230 399.709442
-1.699265 41.107708 403.997314
-1.666080 40.641949 398.213593
-1.619458 41.892006 404.550262
-1.636992 39.193016 401.218262
-1.536096 44.819393 405.332245
-1.470980 39.643276 402.215332
-1.391491 43.268070 405.137177
-1.366021 41.947807 398.704834
-1.357075 44.037510 405.277405
-1.368820 39.451763 399.522552
-1.357689 39.689503 398.934906
-1.337452 42.925426 399.383453
-1.329431 40.296551 403.186523
-1.284921 39.422710 401.616486
-1.211924 44.853317 400.107147
-1.159497 41.205509 398.412354
-1.137124 38.991528 399.945221
-1.032757 45.288177 405.441742
-1.079391 39.956810 402.783295
-1.065914 39.201176 401.036469
-0.978526 40.575603 398.310333
-0.927670 39.579044 398.512695
-0.900879 44.696762 405.395081
-0.901993 44.128494 399.815491
-0.911556 39.263168 400.431610
-0.792235 41.364334 404.275818
-0.769827 42.612698 404.897064
-0.809700 39.660400 402.209839
-0.731257 43.070084 399.486420
-0.713185 42.088287 398.960785
-0.735951 39.450104 399.308197
-0.709234 43.556644 405.246796
-0.740242 40.293987 403.209442
-0.720027 40.936115 403.914032
-0.637091 45.195175 400.195343
-0.667799 39.448330 401.560577
-0.514725 41.426037 398.569305
-0.435613 39.273277 400.996582
-0.382355 40.131554 398.443298
-0.397636 39.329685 399.838593
-0.267835 40.861965 398.364471
-0.214843 39.254875 400.412323
-0.154997 43.986778 399.851074
-0.014398 43.823650 405.263458
0.014851 44.870510 400.054718
0.025536 41.971676 398.894226
0.067565 43.325142 399.564758
0.022908 39.426094 401.390930
0.099523 39.981197 398.758759
0.131493 42.394260 399.193848
0.071363 40.189819 402.920135
0.131214 39.457790 399.466156
0.150284 41.802902 404.490936
0.210250 44.416187 405.324188
0.252633 42.883289 404.959747
0.307207 39.403244 398.886871
0.384048 40.456573 398.365356
0.375383 39.315651 400.698700
0.380403 40.883675 403.708160
0.450120 39.734966 402.050568
0.595556 41.401760 398.589691
0.699503 45.052242 405.400940
0.650399 39.461262 401.223114
0.697491 41.475300 404.259003
0.791898 44.334248 399.952606
0.805375 43.380280 399.626556
0.798099 42.022457 404.612701
0.844816 42.210499 399.056580
0.810257 39.427567 399.961395
0.852300 39.630695 398.732178
0.893724 40.142223 398.403290
0.893168 40.243465 402.734741
0.962047 43.580410 405.123260
0.991595 39.353355 399.326355
1.065876 40.835136 398.441803
1.074229 42.524090 404.791107
1.159154 41.704311 398.741608
1.160393 42.732994 399.280914
1.226770 45.097775 400.086395
1.230282 44.199810 405.233887
1.213278 40.576019 403.188812
1.331768 43.689922 399.614807
1.390318 41.499260 404.143158
1.411130 39.897564 401.799011
1.411315 40.089989 402.324158
1.537066 44.840374 405.250183
1.478210 39.519131 400.812866
1.561815 39.688316 399.709900
1.651715 40.870560 398.469971
1.568341 41.036083 403.667145
1.661913 43.204620 399.430145
1.675402 42.059792 398.924469
1.652965 42.694637 404.802094
1.738961 39.866875 398.776581
1.857718 44.283985 399.875854
1.811358 42.046371 404.437225
1.920653 43.213543 404.836761
1.877315 40.495167 402.911713
1.918808 39.825352 401.499451
2.005137 45.342518 405.174896
2.033356 41.534225 403.936401
2.022579 40.211102 402.290894
2.171977 42.654713 399.097412
2.170163 43.853127 399.620911
2.146738 44.248760 405.024231
2.228242 41.567528 398.781586
2.173206 40.945522 403.429169
2.324997 44.895828 399.925995
2.435664 39.710716 399.223969
2.388987 39.755428 400.584991
2.455888 42.438072 404.464172
2.491814 43.326714 404.708313
2.556906 42.009361 398.902100
2.532454 40.135834 401.801727
2.679961 43.235023 399.288239
2.604930 41.343132 403.489410
2.730973 41.307571 398.588837
2.715215 39.942780 401.110199
2.771856 40.077618 399.650909
2.851597 42.200336 404.102142
2.898213 44.687984 404.933807
2.919306 44.019356 404.867889
2.894529 40.771313 402.601746
3.023301 40.356045 398.493561
3.042746 43.945614 399.548065
3.026048 42.857590 404.546112
3.121197 42.521317 399.048462
3.175163 44.763023 399.724121
3.118089 41.163586 403.159363
3.268761 40.566647 399.127502
3.217312 41.703743 403.602234
3.338448 45.174171 404.806854
3.273494 40.318512 401.581085
3.367387 39.861130 399.440674
