0.686529 55.126842 398.488251
0.694404 58.688362 399.413239
0.656840 58.343281 394.338257
0.738246 57.604145 401.062286
0.778151 54.373695 403.833832
0.770910 59.769978 395.928009
0.844214 56.337963 402.372040
0.857929 56.776478 396.720734
0.829098 59.735470 394.623535
0.860268 57.760601 395.353577
1.011891 54.933014 403.439514
0.946887 59.810066 395.305969
1.035377 57.234402 401.368256
1.097521 55.447437 398.194000
1.084466 56.784279 401.899628
1.095567 57.746864 400.561493
1.282192 54.541134 398.849335
1.134285 59.471935 394.039307
1.250922 59.401012 397.478668
1.305695 55.954498 402.567596
1.258036 57.404354 395.718689
1.267673 57.003735 396.367981
1.307993 55.836823 397.755402
1.311591 54.970905 398.441956
1.318564 59.673489 396.508148
1.358939 54.386868 403.606079
1.357779 55.482796 402.948700
1.427932 56.227203 397.251495
1.416485 58.255207 399.842224
1.452779 59.074932 398.209930
1.423258 59.776600 394.972168
1.460386 58.857296 398.711487
1.511333 54.970264 403.184235
1.514132 59.774151 395.526459
1.520685 58.542583 393.599121
1.619637 57.256458 401.171844
1.728681 56.276333 402.253387
1.728110 57.213512 395.991119
1.784641 57.684597 395.299164
1.802953 56.803638 401.527069
1.767707 58.170422 394.488129
1.835037 56.708790 396.555878
1.906423 54.756226 398.572845
1.886931 57.919628 400.241150
1.992532 55.904530 397.489746
1.999721 55.354614 398.061005
1.997933 59.099426 397.868042
2.038325 55.726418 402.617706
2.039388 58.476906 399.240662
2.016107 58.283436 393.273041
2.036747 59.632904 395.668396
2.142913 59.335903 397.079437
2.152459 59.447784 394.508911
2.249632 54.784260 403.203888
2.214484 57.816570 394.929779
2.255677 56.483864 396.828186
2.255939 57.104122 401.199188
2.319934 58.212494 399.606689
2.395306 57.302467 395.744293
2.472350 54.521858 398.625732
2.470966 54.983776 398.307770
2.449049 56.232269 402.048767
2.446659 58.877350 393.964325
2.507649 59.491119 396.142059
2.527230 57.298767 400.681549
2.584243 58.541523 398.972992
2.651489 55.698589 402.390137
2.671178 55.805794 397.468353
2.644262 58.001350 394.546326
2.693446 57.517742 395.275024
2.732452 58.981686 397.846100
2.742728 58.771076 398.347748
2.830209 58.111019 393.579834
2.881025 56.402058 401.641357
2.891404 56.245552 397.001801
2.905775 55.277760 397.916016
2.953218 56.760799 396.156891
2.970845 55.073036 402.629608
2.958534 58.136330 399.422333
2.981984 57.660458 400.171143
3.059416 59.372112 396.386017
3.034139 59.187721 394.449799
3.088834 54.731628 398.365540
3.111585 59.473824 395.322235
3.199551 58.320690 394.049988
3.258043 59.090858 397.162781
3.373126 58.645702 398.287201
3.408424 57.518597 395.042755
3.407824 59.196625 394.893097
3.421178 56.180737 396.800293
3.441008 55.460938 397.526001
3.495493 58.050140 399.169891
3.577410 57.890572 394.383057
3.522816 57.055340 400.643280
3.591520 56.318726 401.389740
3.675973 57.107685 395.538391
3.640205 58.851299 394.351746
3.670803 56.775326 396.066406
3.652603 59.084156 396.675018
3.711571 58.865948 397.465149
3.877331 57.558369 399.701691
3.943360 55.744823 401.792542
3.945001 55.772511 397.127045
3.980967 54.796139 397.933075
3.971640 59.137432 395.924164
3.974711 58.501049 393.915680
3.991442 59.067242 395.085236
3.959675 57.292713 400.128845
4.047396 58.090248 398.877533
4.082158 54.960999 402.228699
4.085937 58.031368 394.205292
4.107506 55.356747 397.446533
4.161010 58.600056 397.697968
4.205319 56.679256 396.079437
4.302896 57.613342 394.548309
4.295738 58.846077 394.640076
4.387584 55.915157 396.714264
4.469696 58.182476 398.444183
4.545815 56.623940 400.681366
4.588719 58.402393 397.939911
4.597071 55.577114 401.629028
4.648678 57.207447 394.981445
4.668403 56.799816 395.554901
4.627657 57.372375 399.539764
4.624848 57.919861 398.916077
4.666725 58.912258 395.981873
4.673709 58.661587 397.158813
4.693477 56.082539 401.116089
4.677298 57.096798 400.087921
4.821870 54.369061 402.359833
4.869515 55.231586 397.321289
4.974628 58.562141 394.499268
5.014632 58.091114 398.438110
5.128893 56.420254 395.904633
5.064659 56.405758 400.683563
5.121373 58.881313 395.406403
5.185907 54.694313 397.626678
5.202694 57.729603 398.845459
5.250712 58.146553 394.297455
5.215889 57.219021 399.612640
5.253068 55.512001 401.315552
5.311232 58.286175 397.551697
5.310964 56.648525 400.190765
5.364255 54.831573 401.767792
5.435825 55.876888 396.451904
5.449977 58.643696 396.422913
5.462024 55.984009 400.772430
5.519965 57.224773 394.768982
5.487607 55.368740 396.913147
5.555414 56.497711 395.536255
5.692291 54.812588 397.246368
5.662071 57.846729 398.424652
5.672704 58.345936 397.045197
5.757469 57.330761 399.206909
5.778919 58.619884 395.465546
5.818959 56.916790 399.738007
5.857249 55.877632 396.001312
5.928544 54.358185 397.527771
5.978238 56.873959 394.965302
5.981198 58.487682 394.969025
5.983621 54.741302 401.384827
5.982999 55.563690 400.890259
5.982772 58.504139 396.090302
6.106289 57.225166 394.444061
6.073798 55.035183 396.842407
6.062074 57.820374 397.954712
6.098657 56.445801 400.045105
6.145607 57.415432 398.677063
6.227934 58.096188 394.630585
6.259123 58.214783 396.845947
6.380093 55.675732 400.429169
6.413199 56.120296 395.790192
6.459903 58.389698 395.326813
6.511081 58.353252 395.914581
6.488330 57.895473 397.273651
6.525800 56.438519 399.571014
6.577765 55.189381 396.444855
6.695670 57.550575 394.366791
6.686646 54.734344 396.780975
6.715308 57.366421 398.419739
6.844086 56.801144 399.176849
6.883027 56.746548 394.658783
6.864812 55.035595 400.755310
6.918417 58.139118 395.123993
6.919700 57.620113 397.545227
6.968894 54.492859 401.097992
6.962184 55.659405 400.232422
6.959659 57.946644 396.839966
7.126140 57.846821 394.715057
7.104913 58.046566 396.067413
7.239789 54.915096 396.212280
7.258828 55.712166 395.505707
7.259416 57.246029 398.005920
7.324262 56.069794 395.029907
7.479394 57.647675 396.782928
7.486584 55.531689 399.997681
7.515604 56.798367 398.505432
7.616193 57.408325 394.564606
7.647362 57.934414 395.920471
7.714884 55.310535 395.465912
7.702152 54.358509 396.398926
7.726142 55.978207 399.232697
7.782964 57.776978 395.138641
7.778440 55.061012 400.099396
7.796832 56.396526 398.811371
7.932343 56.584103 394.474823
7.969223 54.320911 400.598358
8.053481 57.035461 397.515472
8.107303 55.630451 394.760895
8.124675 56.484783 398.296539
8.246922 54.747852 395.704071
8.288373 57.441158 396.318573
8.421229 57.423382 395.131256
8.473138 57.501221 395.677856
8.531051 57.017971 396.806274
8.743550 56.103088 394.512054
8.711722 54.355373 395.643646
8.693159 55.162762 399.239655
8.698843 54.330299 399.877167
8.715747 56.320831 397.906555
8.768950 56.748226 394.665131
8.752111 55.601509 398.793243
8.964185 56.619534 397.322876
9.056018 55.245800 394.769440
9.038215 55.836079 398.278809
9.083266 56.744534 396.723389
9.190485 54.649105 399.219940
9.179624 57.032471 395.771027
9.286305 55.951313 394.610474
9.275203 56.057484 397.690491
9.316650 56.424129 394.918915
9.425513 56.687763 396.166351
9.511394 55.510139 398.047211
9.599467 56.552509 394.395294
9.556586 56.211712 397.060883
9.673366 54.640614 398.842560
9.696510 55.017830 398.352875
9.685912 56.320858 396.498138
9.801799 56.394714 395.238373
9.971184 56.359913 395.980042
10.015057 55.676434 397.059052
10.119318 55.427387 394.760193
10.092743 55.351295 397.544037
10.148612 54.477528 394.745575
10.184163 55.986855 394.671936
10.161132 54.508862 398.299347
10.345826 56.032101 395.546814
10.480037 55.453094 396.719055
10.523931 55.700447 396.123962
10.553000 54.449993 397.793854
10.758380 54.643581 397.267059
10.865367 55.346600 395.701111
11.040584 54.634499 396.670746
11.041419 55.170147 394.892517
11.083050 54.810627 395.957977
11.357447 54.546120 394.984100
-13.904872 52.734467 393.656097
-13.826736 51.751228 394.307343
-13.843727 52.254498 394.588348
-13.821222 52.163807 393.123596
-13.794049 53.529774 393.318024
-13.715958 51.244152 395.049042
-13.727660 52.880421 394.647552
-13.673952 51.525990 395.661774
-13.674674 52.284863 395.509216
-13.670145 52.953003 392.218750
-13.584473 50.507942 395.051270
-13.670318 54.078957 393.179901
-13.571889 50.859200 395.767822
-13.531661 52.052761 393.901794
-13.568057 53.832226 391.947449
-13.555766 53.942211 393.945099
-13.440192 49.939423 396.046295
-13.478040 53.482899 395.299957
-13.430489 51.162868 396.387146
-13.389465 50.933186 394.711517
-13.460324 53.604031 392.538757
-13.334764 49.617580 396.887299
-13.361821 51.611446 393.547699
-13.377078 52.877941 396.308807
-13.385307 53.156002 395.800140
-13.298810 50.293484 395.578339
-13.309516 52.346996 396.497772
-13.256828 51.315254 397.034546
-13.340853 53.944672 394.947662
-13.228273 50.448505 397.140869
-13.135448 49.764919 395.280151
-13.094113 49.238098 395.851410
-13.102208 51.111355 394.138977
-13.130404 53.693172 396.069183
-13.058894 51.709011 397.459656
-13.076227 52.501751 397.046539
-13.043391 53.172371 396.700165
-12.985915 49.418137 397.593964
-13.021693 53.083187 392.266693
-12.954509 48.698021 397.613922
-12.906113 50.546612 394.714691
-12.933501 51.176514 397.954834
-12.959424 52.741596 392.788208
-12.869906 49.829418 398.148163
-12.838918 50.578842 398.195068
-12.777813 48.087189 396.901062
-12.791318 49.072018 398.259308
-12.746057 49.013638 396.489655
-12.816075 53.629345 396.967865
-12.819818 54.005104 396.497894
-12.781634 52.042080 393.490448
-12.753400 51.734383 398.173920
-12.676494 48.262318 398.115417
-12.682278 52.826294 397.729218
-12.665742 54.178974 392.104462
-12.607059 52.277767 398.312256
-12.599333 53.625210 392.443695
-12.527083 47.556343 397.987396
-12.540976 50.368080 398.805450
-12.478545 48.706264 398.806732
-12.500408 51.609722 398.793884
-12.434752 48.112682 397.493225
-12.416436 50.412514 394.971924
-12.476363 52.905109 393.176819
-12.407144 49.398636 395.651093
-12.404304 47.431122 397.206604
-12.440720 51.932369 394.047791
-12.417235 53.987408 397.333221
-12.361878 50.780079 399.206635
-12.329178 49.150879 399.177063
-12.319050 49.993710 399.192749
-12.333286 52.511360 398.781036
-12.256789 48.871693 396.084930
-12.263370 46.905960 398.102051
-12.269859 51.423214 394.550751
-12.220541 47.666592 399.038696
-12.173488 49.581470 399.614838
-12.198307 47.181129 398.652222
-12.124494 53.495686 398.652802
-12.028865 46.742458 397.515381
-12.084089 52.521919 394.215668
-12.093120 53.377876 393.179596
-11.951978 47.789127 396.720795
-11.979468 52.103924 399.626312
-11.902539 49.437653 396.096466
-11.966829 46.363571 398.489471
-11.932326 50.259163 395.648651
-11.941381 48.369343 396.337219
-11.944674 51.172344 399.795197
-11.891810 51.490284 395.061157
-11.845855 48.747974 399.891449
-11.853702 46.804882 399.204407
-11.830227 50.580074 400.074646
-11.806709 49.950108 400.176483
-11.794777 46.254368 397.804443
-11.765959 53.115284 394.026947
-11.785712 53.946583 393.081146
-11.758295 53.583138 393.597321
-11.696940 45.772995 398.269226
-11.702353 47.621464 399.990326
-11.630928 51.090675 400.300781
-11.645110 53.882935 398.996674
-11.578299 47.285076 397.190094
-11.534644 49.110542 400.474640
-11.551057 52.595104 394.795624
-11.428164 51.647396 400.475311
-11.491179 53.331310 399.682007
-11.460933 46.664913 399.839966
-11.432012 50.621437 396.023285
-11.462981 51.884144 395.417145
-11.390093 47.754230 396.880402
-11.408938 49.720798 396.349182
-11.436385 52.326809 400.282745
-11.394697 45.801640 397.688812
-11.392290 45.873810 399.350891
-11.334027 54.032642 393.502899
-11.243876 49.247723 396.642609
-11.214375 47.389843 400.557648
-11.165712 50.151352 400.837708
-11.116657 52.008118 400.865479
-11.074129 50.998962 401.006012
-11.089294 52.852028 400.613068
-11.045262 48.339245 397.011200
-11.016438 48.810654 401.147400
-10.992631 47.357491 397.189087
-10.980357 49.786758 401.217194
-10.969115 52.639271 395.399139
-11.004109 53.603455 394.577911
-10.938513 47.711086 400.962799
-10.877362 45.425705 397.917816
-10.920670 45.785763 400.133545
-10.873702 51.832317 395.936493
-10.883952 48.891567 397.023163
-10.862803 54.075710 400.160889
-10.827981 53.584759 400.537292
-10.757701 51.618141 401.269775
-10.754130 49.253662 401.420532
-10.775970 48.277859 401.269012
-10.747188 46.421646 400.640106
-10.740401 51.294472 396.333801
-10.669232 52.427410 401.198456
-10.680694 50.107773 396.955200
-10.636351 53.232754 401.063934
-10.640441 50.742878 396.785217
-10.598258 45.857040 400.634766
-10.598357 46.748600 397.495178
-10.501740 50.472500 401.714661
-10.464557 48.235683 401.800690
-10.500861 52.563335 396.025330
-10.477603 47.618324 397.441132
-10.455914 53.126686 395.629852
-10.418768 53.868996 400.869080
-10.390906 48.523220 397.525635
-10.349092 46.784729 401.477509
-10.317794 51.978039 396.402161
-10.200065 51.577583 402.047089
-10.229563 45.450539 397.778778
-10.265631 53.700390 395.382996
-10.209494 51.412933 396.720337
-10.176040 52.796986 401.771576
-10.192906 46.132946 401.203827
-10.192604 45.453686 400.881744
-10.131084 49.821796 397.498657
-10.042994 53.562176 401.479218
-10.035985 49.266941 397.672577
-10.031374 47.812843 397.805664
-9.972157 49.886757 402.372284
-9.991267 51.102444 397.195251
-9.972552 52.885590 396.211243
-9.958067 54.218487 401.291077
-9.956932 52.405743 396.636078
-9.948146 46.915344 397.888611
-9.826983 52.330208 402.214355
-9.826611 46.756432 401.953094
-9.794353 48.564697 402.351044
-9.848887 48.503864 398.009277
-9.788634 47.578228 402.301239
-9.791199 50.553829 397.540863
-9.682893 50.797394 402.646545
-9.679511 49.130672 402.640259
-9.655197 50.011345 397.739594
-9.562982 48.080887 402.606415
-9.546260 54.033810 401.781219
-9.565488 53.417660 396.234711
-9.455763 52.652119 402.646210
-9.502163 54.229977 395.756226
-9.458504 45.645527 401.774536
-9.491093 51.511646 397.285614
-9.448607 45.968601 398.074738
-9.437723 47.068123 402.465454
-9.454743 47.232800 398.226013
-9.427816 52.282452 396.998993
-9.312155 49.520092 402.974121
-9.316638 46.390881 402.338318
-9.241386 47.569973 402.699280
-9.331485 51.132702 397.692535
-9.226278 51.887341 402.886993
-9.299890 49.549019 398.177460
-9.190746 51.219635 403.084747
-9.157463 53.388031 402.383636
-9.197492 48.333160 402.994263
-9.149734 48.923031 403.058533
-9.172027 48.437820 398.464203
-9.015205 50.498104 403.184174
-9.052886 54.074463 396.162659
-8.966418 52.465698 403.061615
-9.019409 52.819965 397.079193
-8.970065 51.708382 397.566010
-8.886974 46.863598 402.848236
-8.957064 50.772682 398.017731
-8.942225 50.196686 398.181030
-8.873352 46.717201 398.533661
-8.826639 45.495491 402.504486
-8.795268 46.103333 402.778381
-8.739402 45.666359 398.343231
-8.718381 49.357098 398.523407
-8.726145 47.549870 398.732269
-8.625043 53.939846 396.566345
-8.623796 52.208942 397.633270
-8.624134 48.884609 398.818207
-8.500016 47.216652 403.306885
-8.581752 53.489326 396.953430
-8.457870 52.896606 403.138977
-8.470627 49.680939 403.672455
-8.445518 48.788403 403.633118
-8.440710 47.017452 398.792664
-8.371765 45.555920 402.896576
-8.273253 51.362049 403.663544
-8.410193 50.937332 398.274750
-8.233881 47.798359 403.566711
-8.313605 48.399525 398.981964
-8.176883 46.401142 403.310272
-8.153636 53.845703 402.799530
-8.023298 52.504101 403.577362
-8.081736 45.504101 398.723755
-8.070984 46.211082 398.937469
-8.099111 50.401367 398.685822
-8.012999 54.262508 396.848572
-8.049407 49.462154 399.090179
-7.942898 46.942074 403.634735
-7.837471 50.541664 404.053864
-7.971978 47.327553 399.187012
-7.826810 45.932034 403.297485
-7.924976 52.159126 398.124725
-7.766866 51.194988 404.089172
-7.741325 49.009956 404.146057
-7.823270 51.551960 398.460419
-7.673189 47.739414 404.017395
-7.654748 49.677525 404.196503
-7.665455 53.627674 403.262695
-7.723680 53.333973 397.535461
-7.593486 52.779675 398.099854
-7.549892 45.757771 398.958740
-7.410388 50.292599 404.307068
-7.408485 46.186623 403.748871
-7.491867 54.087032 397.188049
-7.398140 51.858456 404.069641
-7.357481 48.393490 404.230072
-7.369349 53.160206 403.752045
-7.365019 54.229652 403.284363
-7.469634 48.623199 399.451141
-7.422234 51.296700 398.882629
-7.371595 47.101013 399.274963
-7.369408 47.737499 399.396179
-7.181545 45.391872 403.615997
-7.313841 49.833591 399.388184
-7.152313 48.946041 404.399689
-7.198756 53.726147 397.710571
-6.981588 52.694027 404.087463
-6.974590 47.867680 404.326752
-7.139383 49.319817 399.593872
-6.978103 49.514645 404.461639
-6.963194 50.663292 404.443726
-7.052831 52.469868 398.522125
-7.026010 51.753853 398.830109
-7.002729 50.337208 399.240631
-6.835756 46.920506 404.149445
-6.990674 50.937664 399.168640
-6.892007 46.406933 399.375580
-6.789178 53.411102 403.965149
-6.676792 51.608181 404.464844
-6.807786 47.222439 399.530243
-6.664781 48.512486 404.521515
-6.619240 45.529446 404.019379
-6.560480 45.454037 399.227081
-6.649300 49.886066 399.634552
-6.408171 47.896744 404.589661
-6.412183 54.256416 403.814728
-6.303529 52.281200 404.432404
-6.294113 48.995930 404.737976
-6.267599 49.634151 404.844818
-6.409523 52.868439 398.758331
-6.370972 53.394928 398.407837
-6.412660 52.136585 398.963928
-6.399677 48.470722 399.750824
-6.248557 45.991940 404.330780
-6.338222 51.234631 399.240570
-6.117647 50.334778 404.809418
-6.321462 50.477337 399.540497
-6.273651 47.502090 399.707825
-6.152514 54.297577 397.876129
-6.011297 46.558842 404.624084
-5.934692 48.328346 404.812592
-5.950603 45.478329 399.401489
-5.904094 47.347500 404.645538
-5.862001 51.636959 404.824585
-5.872928 53.772625 404.268005
-5.859602 50.976475 404.827850
-5.882000 52.419056 399.063568
-5.883754 51.757381 399.311829
-5.808263 46.445934 399.801514
-5.804840 53.588501 398.515656
-5.669025 45.646152 404.514832
-5.778876 47.708855 399.931122
-5.566993 52.367565 404.750702
-5.710275 50.939674 399.600922
-5.547537 45.881767 399.548584
-5.617477 49.529751 399.929657
-5.373611 49.817722 405.082367
-5.388312 47.138023 404.949890
-5.352194 54.234051 404.161133
-5.476381 50.101120 399.853760
-5.308940 48.173813 404.799042
-5.428776 53.232887 398.908051
-5.381467 47.053692 399.831848
-5.424913 52.181404 399.351837
-5.222445 48.911709 404.869537
-5.309916 54.304737 398.309326
-5.389288 48.250046 399.949463
-5.170959 53.555012 404.533691
-5.231392 46.282722 399.782776
-5.124462 45.938091 404.588928
-5.023616 46.582348 404.949432
-4.961216 50.929867 405.095642
-5.116014 47.681873 400.056610
-4.951635 52.998577 404.771820
-4.829555 49.373501 405.187134
-4.802270 50.231640 405.204559
-4.929529 50.352325 399.956573
-4.715355 48.400982 405.183319
-4.812221 52.412685 399.367157
-4.672500 45.607201 404.913177
-4.609330 52.099751 405.017120
-4.810225 49.735134 399.992615
-4.657674 45.584335 399.726746
-4.759319 49.070217 400.116394
-4.524929 47.413864 405.225189
-4.598073 47.192444 399.980713
-4.413826 53.713348 404.630524
-4.471782 53.877064 398.831024
-4.353600 50.570980 405.220978
-4.451748 53.025967 399.327606
-4.494311 51.012218 399.923828
-4.420735 47.771515 400.253601
-4.261352 46.517391 405.161438
-4.261089 54.293861 404.393616
-4.351802 46.638660 400.026215
-4.264734 46.013412 404.851654
-4.125619 49.976959 405.330261
-4.259858 52.221504 399.619263
-4.259969 48.374687 400.371185
-4.067898 49.319401 405.392181
-4.000272 53.149555 404.808167
-4.016635 45.797035 399.841431
-3.935020 45.644173 405.229950
-3.865242 51.480042 405.075592
-4.043769 49.815647 400.189331
-3.910042 52.734829 399.484253
-3.716963 50.669823 405.297699
-3.670429 48.086773 405.426605
-3.665373 46.635422 405.325775
-3.639698 52.610107 405.052216
-3.626022 53.906044 404.636932
-3.668824 48.562027 400.365570
-3.501943 49.817577 405.459320
-3.520314 47.272945 405.386902
-3.453091 51.964466 405.173950
-3.573171 53.334644 399.416779
-3.499715 46.698055 400.267517
-3.471842 47.610405 400.304779
-3.500767 49.270737 400.317047
-3.427722 49.859760 400.278168
-3.273039 53.134254 404.896515
-3.370007 52.051746 399.821716
-3.215958 45.844082 405.342194
-3.115885 50.281746 405.413910
-3.228107 45.875671 400.087769
-3.095769 49.420834 405.499603
-3.093874 46.907280 405.483704
-3.059752 47.611130 405.250000
-3.192575 50.818134 400.206787
-3.172989 52.782692 399.653412
-2.988077 51.228298 405.096893
-2.975845 48.754650 405.516327
-3.105888 48.633064 400.452850
-2.947679 52.460358 405.054443
-2.835773 53.552887 404.752838
-2.796702 49.831448 405.256500
-2.766590 54.115368 404.481018
-2.759088 49.543484 400.490540
-2.679637 53.270954 399.510071
-2.605626 46.491165 405.176819
-2.551903 47.731087 405.551300
-2.616500 45.754768 400.230927
-2.603590 46.693172 400.303040
-2.642582 51.597256 400.134003
-2.548922 48.104675 400.485260
-2.506840 52.507824 399.897797
-2.290838 51.181438 405.274902
-2.192959 49.571316 405.533173
-2.197470 48.497166 405.316193
-2.214668 52.192707 404.909912
-2.149820 47.322723 405.320374
-2.250483 50.091183 400.347015
-2.171280 53.037666 399.770203
-2.102651 45.429165 405.405853
-2.152825 51.984661 400.055023
-2.070122 53.878628 404.547546
-2.019920 48.015518 405.584320
-2.112527 50.893833 400.340851
-2.069741 53.567574 399.455139
-2.097687 48.502224 400.609222
-2.076701 49.189953 400.512054
-1.875167 46.125576 405.221466
-1.890634 45.840816 400.316803
-1.782970 50.583466 405.365784
-1.775351 53.170815 404.838593
-1.704478 48.751625 405.579498
-1.708609 52.654938 399.960693
-1.715881 46.989674 400.483917
-1.537782 49.338280 405.297699
-1.601308 47.887138 400.566010
-1.538955 51.907570 400.110474
-1.459284 54.231945 404.359711
-1.455128 51.546276 405.200165
-1.462572 53.302032 399.634613
-1.412644 46.226685 400.400879
-1.335741 46.256691 405.528870
-1.369389 48.955791 400.505463
-1.273900 47.279388 405.623871
-1.242289 52.582123 404.958221
-1.276958 50.160473 400.485077
-1.287639 51.366585 400.342255
-1.187403 54.223053 399.125641
-1.116188 48.708107 405.599854
-1.131341 47.993141 405.531006
-1.146726 46.755592 400.525146
-1.142916 52.447964 399.927460
-1.119403 45.519695 400.289520
-0.897494 49.613323 405.484985
-0.979447 53.619427 399.388031
-0.846616 50.167187 405.442139
-0.807142 52.061687 404.844116
-0.827711 54.258919 404.259094
-0.816229 51.725819 400.134949
-0.765383 53.225552 404.733765
-0.770233 49.391148 400.621185
-0.697585 53.117622 399.703491
-0.718059 47.208309 400.639374
-0.612675 48.652161 400.629944
-0.607674 51.056446 400.352234
-0.517448 52.447643 400.061157
-0.510347 45.913811 405.503571
-0.479592 48.212704 405.550781
-0.506811 47.952511 400.630585
-0.420729 51.360821 405.160278
-0.316491 47.208115 405.390869
-0.285499 50.056683 405.287567
-0.215290 52.482430 404.628784
-0.272967 46.209080 400.419159
-0.243599 51.892017 400.176239
-0.187316 46.522747 405.560272
-0.202062 53.839966 399.478027
-0.114177 49.738598 400.539185
-0.076060 50.642216 405.248993
-0.004947 45.435734 405.391876
0.034455 47.962372 405.547089
0.050635 52.977428 399.688629
0.101402 48.343403 400.692352
0.110079 47.078094 400.517334
0.119243 49.385067 405.375641
0.118300 49.014603 400.603241
0.131409 53.946072 404.200073
0.154036 53.374187 404.426270
0.213507 48.639687 405.470276
0.234668 45.382580 400.225586
0.222383 50.737473 400.358215
0.243655 52.331245 400.012451
0.298053 51.717541 404.890045
0.287930 51.649391 400.155243
0.399949 49.906303 405.261536
0.355909 46.391354 405.474579
0.396672 52.336010 404.786743
0.562390 54.208496 399.206543
0.663916 49.527782 400.610931
0.707552 48.174427 400.630524
0.751610 50.935833 405.011139
0.795432 47.499767 405.401550
0.848264 51.541622 404.841919
0.860868 50.951580 400.448700
0.895538 50.237396 405.168427
0.911818 52.770260 399.834991
0.980721 50.210274 400.431610
0.947877 47.586452 400.565521
0.999490 45.654526 400.238983
1.034662 52.052807 400.147186
1.020405 46.604717 405.387634
1.024465 52.699249 404.459991
1.068626 48.222775 405.282532
1.053544 45.536011 405.297882
1.100704 52.117950 404.628021
1.131375 49.194973 405.285431
1.185647 46.365849 400.391327
1.246539 53.658211 399.452911
1.324243 48.650051 400.570679
1.328236 50.630657 404.975647
1.363302 47.067799 400.490082
1.397157 51.359711 400.247009
1.418278 49.855717 400.515228
1.498696 48.090816 400.551483
1.468858 51.338539 404.733673
1.468297 46.212284 405.350952
1.525117 50.811661 400.439026
1.520782 53.382305 404.105927
1.616457 53.195007 399.617889
1.652361 51.941570 404.465576
1.777927 45.433960 400.176941
1.855295 49.721916 405.000458
1.899371 46.014660 400.270508
1.916765 47.426556 400.591980
1.983741 51.753765 400.054565
1.945411 50.424404 404.873688
2.109098 51.179249 400.270386
2.016797 47.939236 405.171967
2.037799 46.741604 405.229340
2.071611 51.154762 404.650604
2.086592 49.164902 405.028290
2.096390 48.571026 405.147583
2.186723 48.332138 400.513153
2.196301 46.820873 400.430023
2.204919 51.999691 404.350555
2.214641 54.218880 403.442078
2.228670 52.618225 404.133301
2.368430 52.581215 399.769196
2.364352 47.451870 405.080658
2.474969 47.753551 400.439972
2.523990 53.934631 399.051941
2.592229 48.745586 400.421600
2.485574 53.364807 403.885132
2.616463 51.626919 400.112732
2.594836 46.265598 400.272186
2.645084 49.516338 400.430298
2.550785 49.832405 404.789185
2.570683 48.097507 404.937195
2.671010 53.260109 399.380035
2.618159 50.381794 404.699432
2.673095 48.680813 404.981903
2.815001 50.053940 400.354828
2.688669 51.689869 404.277832
2.724035 51.060471 404.455292
2.857801 51.001205 400.230804
2.759914 45.915813 405.005280
2.813614 46.942150 405.016174
2.858480 52.407253 404.118195
2.969212 52.113506 399.878540
3.032964 46.879375 400.273682
3.104726 45.809017 400.191925
3.090128 53.658688 403.416016
3.064498 49.031628 404.753387
3.187512 48.508160 400.396393
3.143028 50.321949 404.549011
3.297011 51.508331 399.963593
3.304700 53.023048 399.443695
3.311382 50.954895 404.256805
3.311384 54.195393 403.107635
3.483503 47.437519 400.366577
3.538953 50.846989 400.079926
3.492532 46.367630 400.257172
3.410655 46.951664 404.742554
3.431818 51.551846 404.100037
3.447432 48.035641 404.687164
3.571687 49.597980 400.227783
3.690782 52.011105 399.793884
3.561331 53.317974 403.451324
3.714833 53.951393 398.734528
3.661999 46.238613 404.696320
3.659691 49.591076 404.581635
3.669821 50.279034 404.299255
3.878443 51.415138 399.827484
3.788181 45.874775 400.102692
3.903594 48.480511 400.293823
3.859699 52.397541 403.611755
3.868047 54.248268 402.853333
3.914598 47.342144 404.530426
3.951710 50.799038 404.142456
3.981782 49.044685 404.412933
4.030708 46.534088 400.093384
4.137832 50.623249 400.058044
4.160088 49.950542 400.120148
4.081085 46.712196 404.560181
4.116674 45.388752 399.839630
4.091655 51.388577 403.929993
4.110569 53.608822 403.101196
4.223961 54.079327 398.466034
4.352462 52.549305 399.325592
4.399238 51.140392 399.857635
4.430246 47.986164 400.143311
4.347926 48.309307 404.402252
4.337305 49.967304 404.092163
4.456853 54.053139 402.648529
4.511172 46.987572 400.030090
4.432367 52.101368 403.474274
4.449691 49.323116 404.233978
4.590319 46.001625 399.955536
4.554259 47.342602 404.439117
4.728982 51.949219 399.472382
4.622743 52.609539 403.284851
4.852942 50.208893 399.971497
4.828271 53.325661 398.730194
4.730860 51.394772 403.546967
4.744382 46.129951 404.355347
4.903736 48.994045 399.960510
4.976140 51.314491 399.635559
5.099616 49.536091 399.936981
5.081851 46.716991 399.827423
5.177599 52.287819 399.223816
5.159852 48.431416 399.906036
5.137564 54.229603 398.030670
5.210163 50.827328 399.672577
5.084503 52.814991 402.899994
5.106774 52.262299 403.136932
5.134677 47.095745 404.163239
5.123878 50.742928 403.584808
5.232334 45.663727 399.655914
5.155346 49.295830 403.860443
5.425894 50.069164 399.686035
5.432444 47.221302 399.809937
5.495801 51.416012 399.366608
5.354334 46.202389 404.055481
5.332138 50.032856 403.701508
5.410945 51.532299 403.257080
5.540558 52.559437 398.846069
5.539264 46.288357 399.552185
5.495157 48.449837 403.956207
5.514760 53.764050 402.256104
5.703883 48.172832 399.701019
5.609661 52.693554 402.743652
5.803329 49.572422 399.693970
5.845191 50.937511 399.403503
5.913962 52.878609 398.560394
5.816667 51.992725 402.955048
5.845436 50.428307 403.361725
5.872930 53.217682 402.365662
6.001403 53.430126 398.171600
5.969198 45.687820 399.310394
5.899137 51.084866 403.122498
5.988135 49.064754 403.502197
6.139483 51.834908 398.953430
6.031803 46.527996 403.742035
6.076438 45.974773 403.686279
6.192233 51.255032 399.019440
6.057486 49.766033 403.329071
6.229581 46.451702 399.415924
6.191526 47.127850 403.608215
6.192990 48.083935 403.613800
6.232137 51.522888 402.850067
6.349910 50.299374 399.254639
6.369386 47.261868 399.387787
6.361242 48.674103 399.416382
6.298664 52.652069 402.401154
6.379456 50.265503 403.095154
6.521233 53.453094 397.750397
6.478494 54.244625 401.517761
6.703163 52.925625 398.003479
6.748456 49.440838 399.171265
6.690241 53.620808 401.731415
6.711924 48.295647 403.330811
6.795748 46.790154 399.200653
6.854164 52.430569 398.271729
6.819055 54.238178 397.136444
6.778059 52.342873 402.259857
6.869166 47.864422 399.245117
6.864287 45.507442 399.000916
6.809957 49.276073 403.090057
6.939329 53.711056 397.438354
6.889645 46.430836 403.261261
6.981631 51.879261 398.464630
6.888288 50.992649 402.621429
7.070477 50.852867 398.712799
7.055675 50.155361 398.876465
7.043880 47.331860 399.173248
7.101866 48.611252 399.043579
7.105920 47.465229 403.041840
7.234592 52.738861 397.789276
7.213798 53.388844 401.536713
7.248407 45.908321 402.984833
7.333480 52.143604 398.095428
7.223781 49.959953 402.629944
7.330135 46.235786 398.863068
7.386549 45.659767 398.760468
7.363380 51.428020 402.224609
7.449780 48.609760 402.770264
7.460712 46.978497 402.909058
7.481046 54.108387 400.971832
7.552693 48.838772 398.797455
7.576623 47.587059 398.850128
7.603711 53.800423 396.970001
7.674774 49.979286 398.517059
7.602333 52.010738 401.873993
7.713287 52.997608 397.410400
7.628928 50.286003 402.314667
7.651906 53.621120 401.207367
7.749691 51.683399 398.062622
7.629459 49.567413 402.529205
7.676427 47.613697 402.728088
7.678936 52.969997 401.423370
7.783470 46.782001 398.687256
7.831863 48.351551 398.601379
7.846159 52.332611 397.649200
7.890795 51.084820 398.089600
7.848282 45.651287 402.425873
7.841936 50.870556 402.062073
7.876953 48.150429 402.529755
7.969237 49.085396 398.466644
8.044263 50.360504 398.183929
7.986170 49.099648 402.394379
8.114489 45.735973 398.405487
8.257080 51.779671 397.670929
8.242950 52.944405 397.118744
8.197371 46.705578 402.388000
8.264292 50.534821 401.831879
8.268288 51.871479 401.524719
8.328986 53.401257 400.726196
8.370048 51.237804 397.790894
8.306563 51.092079 401.745575
8.397061 46.363964 398.292419
8.425930 49.439774 397.987061
8.386119 48.589108 402.144226
8.530311 48.283764 398.152924
8.474557 52.516735 401.147614
8.549251 47.019009 398.280823
8.574211 50.629086 397.643372
8.542760 47.762676 401.976624
8.571239 45.873817 401.799469
8.533305 49.551743 401.807526
8.720234 51.966778 397.207886
8.716964 45.619736 398.007172
8.783741 53.843056 396.115692
8.800143 51.282589 397.382660
8.830367 53.068348 400.482056
8.869124 46.867214 401.635223
8.901295 49.883472 397.752930
8.867615 51.732571 401.026093
9.000965 52.812416 396.548706
9.000849 52.333565 400.729401
9.047137 47.194736 397.843231
9.076128 48.608856 397.857178
9.049106 48.946316 401.567474
9.149764 53.948517 395.588684
9.153652 46.175743 397.742157
9.064997 51.021187 401.050812
9.182449 53.307381 396.101166
9.153711 45.686989 401.058197
9.260670 51.613880 396.994354
9.264499 50.829826 397.250580
9.247536 48.007404 401.387054
9.335197 49.453640 397.394745
9.299258 47.283619 401.309174
9.365734 46.749607 397.583252
9.322032 50.346840 401.102905
9.416460 53.593811 399.667175
9.386848 46.204006 400.966309
9.406557 51.802990 400.602753
9.432979 48.215965 397.566132
9.405657 46.213528 397.241364
9.381815 49.402737 401.241760
9.530654 52.259460 400.274658
9.567336 51.926208 396.618988
9.584112 50.073063 397.302979
9.561072 54.088650 395.132690
9.587053 52.856548 396.012054
9.580607 45.546574 397.433685
9.564242 47.352825 397.543365
9.635749 53.529812 395.552643
9.625046 48.624306 401.051025
9.675902 51.232666 400.568390
9.677639 47.017952 400.818115
9.728011 46.361977 397.825226
9.754924 52.967133 399.687225
9.741729 49.931473 400.856812
9.764311 45.753948 400.188538
9.770366 47.836842 400.838715
9.826697 51.691994 400.220917
9.866500 53.783863 399.081726
9.848715 49.391964 400.750153
9.949847 50.281567 396.867065
9.959387 52.143597 396.193939
9.923454 46.882542 397.463348
9.995004 49.032059 396.998291
10.110387 52.482246 395.733398
10.084417 45.644142 398.475922
10.098788 53.848976 394.838715
10.085154 50.867901 396.591766
10.035870 48.791073 400.614227
10.078391 48.330563 397.118988
10.056514 47.362885 400.397522
10.120242 49.732025 397.018372
10.200686 53.315823 395.248383
10.203624 51.629372 396.086212
10.196765 46.692646 399.981323
10.224183 48.151470 400.395782
10.288534 52.147411 399.646179
10.266829 45.915344 399.012909
10.250309 47.806530 396.886230
10.275917 47.331120 397.214905
10.275371 48.879494 396.229858
10.305319 50.490437 400.138000
10.292872 49.369186 400.195953
10.326369 46.397148 399.394531
10.330271 48.322098 396.513916
10.351198 46.382984 397.693726
10.408946 46.121716 398.369293
10.489451 53.867401 398.386383
10.479865 47.154659 399.702728
10.451312 47.678017 399.943329
10.548788 52.116634 395.530518
10.571891 53.026592 398.856842
10.562934 46.998016 397.628632
10.529365 48.728985 400.187469
10.607874 52.780487 395.318329
10.592975 49.117786 396.617279
10.611592 51.364864 399.563171
10.663955 49.838936 396.555756
10.641472 46.930943 399.166473
10.642722 50.633957 396.246704
10.676756 46.703789 398.146637
10.876822 47.579407 399.227631
10.852513 48.766659 399.648682
10.893044 48.227058 399.374054
10.861213 47.178707 398.615570
10.883788 48.452301 396.901520
10.934002 53.997181 395.024750
10.911735 47.495510 397.416016
10.960239 51.277565 395.683319
10.936224 49.858234 399.481232
10.993361 51.961285 398.839172
11.028264 52.774288 398.379425
11.041753 53.965786 397.396088
11.071512 52.300293 395.467285
11.099277 53.433178 395.057495
11.134417 47.807129 398.019653
11.146820 51.404781 398.736877
11.157814 48.345509 398.887177
11.266631 50.169350 398.970459
11.260557 50.171860 396.432098
11.323739 50.852921 398.783936
11.311992 50.722466 396.148041
11.351315 54.041180 396.711823
11.322509 49.297619 396.705048
11.382494 52.856812 395.351715
11.395390 53.273327 397.501068
11.349527 48.709560 398.353241
11.408876 49.289879 398.802460
11.382170 48.560650 397.204346
11.441584 51.742489 398.328278
11.485697 51.650555 395.763824
11.466144 52.377686 398.037292
11.497991 53.955730 395.189270
11.560749 54.070965 395.997284
11.649829 53.254524 396.913910
11.633518 49.704128 397.881683
11.618480 49.101162 397.529541
11.718696 50.566380 398.021606
11.694144 49.657143 397.277588
11.727180 49.871613 396.185089
11.774837 51.532448 397.570465
11.814589 53.264080 396.184662
11.858479 50.510170 396.373138
11.919169 50.505692 397.210541
11.956002 51.193409 396.449219
11.987576 52.694057 395.406097
11.988189 51.590405 396.929413
11.971455 52.329987 396.570190
12.017630 51.992439 395.540802
-11.320455 45.322857 398.684814
-10.899456 44.814144 398.917297
-10.827094 44.879440 398.085419
-10.666046 45.029369 399.855896
-10.564122 44.428493 399.397308
-10.402149 45.123608 400.390045
-10.353934 43.976814 398.951385
-10.254483 44.192787 399.924500
-10.053489 44.579910 400.458466
-9.885840 44.956837 401.014374
-9.852241 44.696175 397.953888
-9.756710 45.282017 397.978027
-9.694102 43.438087 399.154999
-9.652388 43.541260 399.733917
-9.621126 43.741093 400.293060
-9.461761 43.759655 398.495239
-9.450339 44.272079 401.150909
-9.353456 43.250378 400.210510
-9.335547 43.056652 399.633087
-9.220764 43.108898 398.988739
-9.100835 43.580837 397.966644
-9.064174 44.783428 401.955719
-8.963518 43.200741 398.408356
-8.955087 43.068447 400.674286
-8.926565 42.638920 399.407806
-8.927773 44.623177 397.997650
-8.832492 42.658482 398.788055
-8.716121 44.254745 401.833130
-8.646670 42.409836 399.931305
-8.514683 42.857979 400.997772
-8.490527 44.918255 402.494598
-8.451404 43.322018 401.543427
-8.405920 44.183250 398.330292
-8.386146 43.431683 398.118439
-8.360332 44.375843 402.287842
-8.287604 42.275768 399.179199
-8.217734 42.044537 400.135895
-8.056140 42.534206 401.236084
-8.009344 43.399597 402.052246
-7.963351 43.949791 402.420258
-7.887863 42.804878 398.328033
-7.801404 45.324501 403.245636
-7.803036 41.851471 400.672913
-7.786674 44.640728 398.590881
-7.695949 44.488850 403.039368
-7.702466 41.943718 398.766693
-7.683695 43.453861 398.294739
-7.662685 44.030575 398.462128
-7.619762 42.930893 402.017761
-7.604790 42.431187 401.609161
-7.560993 43.473362 402.464233
-7.426694 41.550953 399.326263
-7.378736 41.786140 401.214691
-7.337448 41.481262 400.442169
-7.236878 43.950676 402.989960
-7.240920 44.843323 398.824829
-7.215278 42.094814 401.777191
-7.190960 42.799255 402.441986
-7.193566 42.512630 398.485504
-7.164444 41.215740 399.864746
-7.144840 41.911045 398.582275
-7.117455 43.231010 398.355896
-7.008945 44.683193 403.559570
-6.940331 41.451122 398.858246
-6.919831 43.897903 398.661957
-6.884202 41.296402 400.987244
-6.827363 44.435940 398.828583
-6.802219 40.978275 400.375946
-6.693559 42.432545 402.498444
-6.675044 42.067707 402.103638
-6.648004 43.439075 403.142975
-6.615126 44.961151 403.963440
-6.670800 42.824623 398.398804
-6.490038 41.314720 401.607788
-6.494944 42.252464 398.280823
-6.462126 43.499371 398.603577
-6.455869 41.635597 398.463715
-6.423503 40.782444 399.849762
-6.343727 44.417717 403.827820
-6.354093 40.858418 401.045288
-6.283259 44.738045 399.064819
-6.285643 41.008743 399.079651
-6.234166 40.651443 400.388855
-6.063549 43.818996 403.767303
-6.071358 43.946003 398.842163
-6.084191 43.029491 398.538269
-6.048837 43.296410 403.476562
-5.991138 41.207401 402.048706
-5.932225 40.900112 401.540527
-5.932767 42.517719 398.420624
-5.872864 42.187672 403.004974
-5.819126 40.469955 399.942108
-5.773010 41.722622 402.615234
-5.742346 42.675686 403.389709
-5.728747 40.550102 400.957428
-5.698024 41.989483 398.373505
-5.644962 44.657406 404.398407
-5.565168 45.089596 399.309662
-5.572366 40.410057 399.386383
-5.513581 40.253399 400.447754
-5.486060 44.337475 399.105682
-5.478555 41.197735 398.419098
-5.412992 41.013756 402.124115
-5.366088 43.450871 404.013763
-5.335560 40.537834 401.540619
-5.279867 42.130070 403.190948
-5.287113 43.376293 398.721405
-5.293603 40.194809 399.832703
-5.201960 41.382713 402.685455
-5.216054 43.948887 404.323944
-5.195770 40.604126 398.842560
-5.181454 42.515129 403.635956
-5.067781 40.202686 401.011383
-4.988704 40.186810 399.290741
-5.013286 41.576061 398.273346
-4.945493 45.141788 399.470459
-4.803407 40.607510 402.053253
-4.835899 40.991127 398.461578
-4.749064 40.047363 400.322174
-4.710421 44.054691 404.605896
-4.692622 43.452896 398.889557
-4.650700 40.201645 401.557251
-4.615918 43.123127 404.212921
-4.638590 39.935284 399.719299
-4.611687 42.603962 398.578094
-4.562766 45.030174 404.647278
-4.538404 42.574680 403.884613
-4.460479 40.471401 398.587952
-4.413410 44.885559 399.422180
-4.419187 41.583172 403.256012
-4.345377 44.320694 399.370300
-4.352884 39.967976 400.937958
-4.298768 40.591988 402.503021
-4.236265 43.809338 399.169189
-4.212565 42.050732 403.742432
-4.218572 40.096390 399.170349
-4.162930 41.081013 402.978729
-4.158572 40.890644 398.185059
-4.047994 44.774380 405.000183
-4.040092 41.833557 398.352386
-4.002939 42.640610 398.647919
-3.937898 39.888531 401.508514
-3.879963 44.176525 404.703369
-3.847693 40.237995 398.467346
-3.789426 43.102787 404.595459
-3.775784 41.378502 398.302826
-3.745207 39.807976 399.146271
-3.649015 43.719349 399.200897
-3.672222 42.983532 398.967163
-3.641633 45.100914 399.690887
-3.680792 39.715176 400.097382
-3.540511 41.813129 403.955933
-3.617447 39.669788 400.908844
-3.549053 39.989895 401.990204
-3.424454 40.642525 398.313446
-3.401433 42.577343 398.726166
-3.372652 40.351601 402.539459
-3.339526 41.253719 403.595703
-3.296190 44.213573 405.084900
-3.191118 42.668385 404.670471
-3.179699 42.016804 398.587769
-3.145589 44.816261 399.826019
-3.109105 39.723820 401.597565
-3.173889 41.210766 398.255951
-3.025919 44.125317 399.522583
-3.045289 45.045563 404.978119
-3.013750 42.002102 404.261108
-2.956184 40.122189 402.277069
-2.910175 43.626564 399.349060
-2.910249 43.133690 399.169952
-2.895602 39.395462 400.913727
-2.885480 39.625896 399.987396
-2.864752 40.324226 398.456116
-2.781247 43.702541 405.080353
-2.751132 41.105572 403.625336
-2.681894 44.334156 405.019623
-2.631579 42.333763 404.578888
-2.594691 45.032963 399.912415
-2.595843 39.828823 398.940643
-2.493932 41.796753 404.279694
-2.499786 39.726482 402.010223
-2.467652 40.295124 402.754608
-2.449034 40.734257 403.294525
-2.470462 41.429317 398.406891
-2.422975 40.833462 398.189362
-2.292166 43.678959 399.432495
-2.260295 41.973717 398.647400
-2.207804 44.215458 399.647614
-2.202286 39.387211 401.163635
-2.188332 39.925434 402.455597
-2.124305 44.455318 405.311615
-2.102755 43.721241 405.211700
-2.082146 42.493496 404.813568
-2.065986 40.955101 403.627777
-2.013782 43.094555 405.036041
-2.002682 39.608730 399.146210
-1.949722 39.447292 400.492249
-1.926516 42.756107 399.047272
-1.889081 40.513977 403.215698
-1.870631 39.619419 401.774292
-1.859178 41.204777 398.386414
-1.862408 40.150528 398.364716
-1.774907 44.765617 400.056671
-1.828023 39.140224 399.903809
-1.707665 45.333118 400.165131
-1.702672 40.166958 402.749542
-1.690511 43.807068 399.691010
-1.678241 41.223953 404.001404
-1.663440 40.743965 398.212250
-1.596399 41.964062 404.524506
-1.627330 39.338703 401.242371
-1.554331 44.834503 405.322388
-1.409293 39.803207 402.254120
-1.403556 43.302719 405.119568
-1.374839 42.015240 398.676239
-1.355979 44.059341 405.265350
-1.348426 39.580212 399.517700
-1.364891 39.791965 398.934906
-1.333662 42.978756 399.371613
-1.294948 40.443672 403.221008
-1.276789 39.570129 401.622437
-1.216869 44.866909 400.106171
-1.163458 41.290779 398.406311
-1.122950 39.117081 399.932251
-1.060522 45.277370 405.430511
-0.998254 40.098301 402.810822
-1.022346 39.324444 401.041351
-0.969051 40.673344 398.281097
-0.972305 39.708462 398.496185
-0.913965 44.704636 405.382477
-0.883859 44.134335 399.809601
-0.867612 39.386578 400.433777
-0.791782 41.479469 404.282471
-0.776995 42.665386 404.874817
-0.748919 39.825062 402.258179
-0.718689 43.103962 399.478851
-0.748424 42.146893 398.951569
-0.695996 39.582218 399.320190
-0.714623 43.585308 405.217316
-0.679305 40.435261 403.241089
-0.668907 41.034374 403.906860
-0.653201 45.219284 400.186584
-0.657626 39.607819 401.595551
-0.552418 41.498329 398.561371
-0.395309 39.423054 401.014618
-0.402136 40.241001 398.442291
-0.395517 39.458767 399.847443
-0.306391 40.925880 398.353149
-0.183428 39.369587 400.420502
-0.156269 44.018230 399.850677
0.013817 43.825336 405.251038
0.018981 44.902012 400.053558
0.037171 42.032230 398.903168
0.051268 43.333015 399.550812
0.073804 39.577938 401.410370
0.103851 40.114296 398.756378
0.154178 42.478035 399.189697
0.119648 40.298729 402.944183
0.134378 39.560589 399.474762
0.150884 41.872940 404.468964
0.209701 44.420116 405.307129
0.256032 42.925747 404.938690
0.318776 39.507030 398.885345
0.387544 40.562286 398.377411
0.413311 39.455158 400.712921
0.381177 40.999355 403.744263
0.515827 39.883499 402.079559
0.569749 41.490673 398.591614
0.691086 45.066650 405.395752
0.714295 39.621082 401.253784
0.729272 41.556019 404.259857
0.787748 44.360210 399.942596
0.806231 43.430450 399.621002
0.808885 42.093002 404.622589
0.823066 42.248657 399.045258
0.862198 39.565994 399.974792
0.838998 39.713650 398.735504
0.857356 40.252510 398.403870
0.919950 40.396568 402.778137
0.939087 43.612816 405.106903
0.986938 39.466820 399.315430
1.045397 40.931385 398.454529
1.076065 42.572136 404.780334
1.145493 41.748470 398.746674
1.151234 42.780422 399.274017
1.218468 45.117798 400.075592
1.240261 44.215237 405.215881
1.236529 40.701015 403.221008
1.350558 43.717712 399.610901
1.401447 41.583199 404.154022
1.433248 40.028156 401.837982
1.424674 40.248268 402.361450
1.518545 44.834198 405.239532
1.561320 39.645130 400.845917
1.614691 39.787209 399.724640
1.654787 40.930256 398.489044
1.592685 41.138073 403.683258
1.675929 43.258690 399.437561
1.668437 42.133675 398.910767
1.647640 42.726585 404.775513
1.727579 39.980057 398.795135
1.854897 44.315655 399.880371
1.803228 42.099777 404.434509
1.914492 43.245983 404.826599
1.924518 40.624985 402.950439
1.990767 39.973190 401.526825
2.007632 45.349365 405.170837
2.039082 41.630314 403.969574
2.067964 40.346226 402.320465
2.161229 42.712482 399.104980
2.161540 43.891129 399.621643
2.144901 44.266933 405.016754
2.229851 41.646374 398.799042
2.222100 41.055000 403.449188
2.313173 44.896965 399.925323
2.468645 39.828384 399.230896
2.458092 39.854977 400.625946
2.438635 42.483803 404.449158
2.480560 43.354843 404.688446
2.537196 42.065666 398.908722
2.581193 40.285980 401.813721
2.664609 43.261154 399.296997
2.635531 41.430767 403.497314
2.751528 41.384502 398.618805
2.766781 40.076893 401.149628
2.811027 40.173588 399.664490
2.850954 42.245888 404.096924
2.888984 44.681942 404.916260
2.916049 44.045189 404.850433
2.927921 40.919365 402.617523
3.020283 40.434834 398.517212
3.020458 43.987858 399.547577
3.009120 42.885983 404.536224
3.125528 42.577862 399.054474
3.166255 44.784317 399.715698
3.145617 41.274071 403.184174
3.281766 40.682442 399.144684
3.219331 41.776924 403.597992
3.311544 45.163219 404.813202
3.323271 40.434818 401.613068
3.418299 39.973515 399.453705
3.379992 45.313614 399.942413
3.408876 40.123966 400.771576
3.452344 40.202007 400.134186
3.507538 44.557552 404.658112
3.605347 41.885719 398.763977
3.639688 42.942135 399.143555
3.659570 41.038231 398.621643
3.652173 42.398064 398.939331
3.593443 43.964787 404.515320
3.625890 42.905060 404.189270
3.815123 44.805016 399.718353
3.815932 40.742260 401.927124
3.901830 44.196136 399.488037
3.824730 41.916851 403.446991
3.878317 41.135860 402.480072
3.886173 40.512890 401.235138
3.926008 45.291752 404.632965
3.936799 40.315861 399.796417
4.002364 43.588310 399.292297
4.006861 43.429741 404.240753
4.092176 40.456245 400.608215
4.175591 41.461620 398.578705
4.158348 44.310562 404.377594
4.261954 40.506207 399.058777
4.179915 41.616043 402.929626
4.194978 42.396572 403.678131
4.369226 41.408154 402.360352
4.463709 40.865032 401.561493
4.479991 45.357361 404.478271
4.504535 43.728275 404.123413
4.594759 43.454281 399.033783
4.549739 42.118160 403.218933
4.677709 42.489590 398.750305
4.622924 40.658825 399.893402
4.746138 41.046288 399.180756
4.692467 45.293972 399.685333
4.730255 44.911453 404.246155
4.836720 41.445419 398.554108
4.810137 40.683498 400.413452
4.882663 44.709908 399.481232
4.832960 42.718204 403.488800
4.881401 44.233162 404.085327
4.877912 43.304256 403.796234
4.915365 41.336338 401.979095
5.013418 43.806011 399.061890
5.130520 41.997814 398.580505
5.093241 41.132275 401.353699
5.211056 40.956726 400.055573
5.291034 44.596241 403.837341
5.292855 42.077511 402.627869
5.369077 44.518166 399.237579
5.423915 40.894310 399.468048
5.449428 41.365631 399.056976
5.398910 43.210217 403.395020
5.439658 45.339916 403.933014
5.536437 43.058964 398.739471
5.541254 43.914127 403.641815
5.696144 42.379181 398.530731
5.709257 41.696522 398.557495
5.651357 41.330975 401.014282
5.665339 41.593594 401.611603
5.714248 42.899345 403.000946
5.829579 41.246094 399.980743
5.862822 44.929302 399.199738
5.864485 44.661602 403.590027
5.984909 43.421349 398.679626
5.946998 42.616207 402.554535
6.069142 41.772575 398.987244
6.039599 43.382275 403.051971
6.140312 43.984741 398.811035
6.189548 45.152477 403.451965
6.204710 41.548370 400.601196
6.253609 44.217728 403.210266
6.204209 41.737499 401.248383
6.267857 42.178417 401.790497
6.391208 42.168194 398.554260
6.409320 41.538391 399.943420
6.458492 45.061813 399.066376
6.488582 43.321381 402.578247
6.522751 41.792507 399.332001
6.733650 42.022221 400.824738
6.847623 43.279507 398.396606
6.937122 42.418129 398.734558
6.933956 45.357700 403.049316
7.020985 43.838840 398.563873
