-10.767329 56.039425 391.913879
-10.662864 57.248798 395.744598
-10.645803 55.435364 399.147705
-10.660650 54.634327 393.958008
-10.633643 57.487556 394.854462
-10.604165 56.404827 397.948578
-10.663744 57.880707 393.681946
-10.668911 57.950542 392.910126
-10.623526 56.506378 391.477600
-10.500329 55.255798 393.241608
-10.412358 54.349487 400.505219
-10.420840 57.817684 394.462097
-10.363584 57.056629 396.891144
-10.363590 55.330811 399.707611
-10.458360 57.579567 391.404388
-10.246516 56.897938 397.564697
-10.341674 56.053738 392.561615
-10.257754 54.826839 394.363007
-10.200520 57.656841 395.858887
-10.221247 57.896400 395.027313
-10.147223 54.834469 400.380035
-10.096955 55.937500 399.328094
-10.195399 58.099884 391.682220
-10.052711 57.492237 396.395233
-10.133239 58.228657 392.933563
-9.983139 54.433186 394.794830
-10.060480 56.749676 391.874115
-9.977078 58.107098 394.247406
-9.837996 56.683918 398.773102
-9.875495 55.726818 393.703583
-9.749853 57.391907 397.445343
-9.797668 58.159920 394.805786
-9.768150 58.461098 393.733490
-9.813079 58.459778 392.032684
-9.760918 57.832306 391.031616
-9.608312 57.835926 396.493073
-9.647012 55.510681 394.186279
-9.602814 55.679737 400.430573
-9.574664 58.146267 395.595428
-9.583049 56.255981 393.307220
-9.487474 55.259041 394.775116
-9.454356 55.318462 400.910339
-9.499777 58.172558 391.527924
-9.384601 56.483582 399.725555
-9.385619 54.736977 401.352509
-9.346116 58.470245 394.840637
-9.305550 54.731457 395.206451
-9.299769 56.164459 400.228912
-9.233886 57.414440 398.287842
-9.361213 58.750439 392.347443
-9.362022 56.844971 392.371826
-9.321730 58.705395 393.128845
-9.194060 58.168182 396.234619
-9.320224 57.496258 391.516541
-9.188064 55.637592 394.527832
-9.204759 56.593472 393.055969
-9.107780 55.215431 401.363892
-9.107203 58.728096 394.134827
-9.040946 58.464825 395.343933
-8.992583 58.140217 397.090942
-9.000144 57.058784 399.334442
-8.897402 54.965778 401.892273
-8.867614 58.516460 395.897339
-8.838149 56.028175 400.999359
-8.869071 57.323597 392.292816
-8.815228 58.925373 393.405060
-8.719777 54.370583 402.252655
-8.809764 57.883472 391.474152
-8.692584 54.724586 395.841644
-8.690412 56.131744 394.419159
-8.725944 57.104462 392.856018
-8.577136 58.367340 396.632599
-8.613474 56.717854 400.335907
-8.653769 56.683807 393.769714
-8.516416 58.054554 397.893402
-8.632476 58.364319 391.638031
-8.518373 54.453594 396.324371
-8.518379 55.395466 401.806488
-8.504560 55.475750 395.401398
-8.420898 58.945644 394.760529
-8.363425 57.734844 398.831146
-8.323595 57.770912 391.948608
-8.287055 59.157368 393.348969
-8.199884 54.926693 396.069031
-8.150333 58.752918 396.379608
-8.236782 59.161060 392.461151
-8.104040 58.447823 397.202026
-8.222812 57.381344 392.760895
-8.081026 56.439892 401.159058
-8.011981 57.463215 399.884735
-8.097258 58.620235 391.750793
-7.997519 58.901806 395.792236
-8.012774 55.792030 395.283417
-8.037899 57.054165 393.767548
-7.895867 54.871906 402.497955
-7.889302 57.191322 400.399963
-7.921407 56.590816 394.551727
-7.853367 59.310211 394.006622
-7.826137 58.099983 391.869354
-7.728959 56.943733 400.964935
-7.770072 59.386536 392.805664
-7.635231 58.316162 398.323334
-7.646072 55.245510 396.158936
-7.611723 58.651684 397.472076
-7.635008 55.996693 401.853760
-7.604487 59.137581 395.343048
-7.661623 58.908173 392.022858
-7.651220 57.770302 392.920288
-7.531652 55.760254 395.727631
-7.473877 54.839851 396.659912
-7.474404 59.138592 396.110107
-7.463446 57.905731 399.440308
-7.483025 59.355877 394.702057
-7.469447 59.587585 393.294525
-7.275214 55.678661 402.466827
-7.303243 59.236927 392.330322
-7.298142 58.168427 392.473816
-7.196026 56.524487 401.730042
-7.140660 54.985249 402.981049
-7.142654 57.166485 400.980621
-7.114004 55.660877 396.252167
-7.173459 59.546021 393.989044
-7.091558 58.847958 397.448914
-7.165728 57.651836 393.602661
-7.123848 57.310730 394.067871
-7.035961 57.631050 400.365540
-7.002357 58.571918 398.362885
-7.072188 59.604748 392.800751
-6.991960 59.402649 395.483612
-6.976259 56.651611 395.177063
-6.913435 59.169361 396.661346
-6.908357 59.271461 396.033630
-6.872366 54.439587 397.302887
-6.822067 54.902077 396.958832
-6.879840 59.524513 394.833099
-6.809522 58.308826 399.292999
-6.812873 58.065865 393.239594
-6.779296 57.132362 394.511200
-6.793970 58.884987 392.111664
-6.675607 56.128395 402.425690
-6.729464 59.701935 393.526337
-6.715052 58.420513 392.571167
-6.614348 56.045052 396.100220
-6.605782 57.261074 401.239716
-6.573972 55.622780 396.499664
-6.546375 59.025703 397.413971
-6.395709 58.749123 398.376068
-6.372783 57.875454 400.404510
-6.317258 54.707661 403.517883
-6.322675 57.006664 401.831299
-6.255701 55.657040 403.013885
-6.298250 56.420509 395.769867
-6.291043 59.715462 394.775696
-6.210748 58.407570 399.412933
-6.277073 59.392139 392.451569
-6.237932 59.851978 393.949432
-6.170834 56.533367 402.328094
-6.139639 59.040131 397.886353
-6.213003 57.380604 394.659973
-6.159250 57.579800 401.070801
-6.190537 57.843212 394.086975
-6.017228 55.310860 397.142761
-6.024641 59.456104 396.688690
-6.026606 56.182137 396.342987
-6.011036 58.202309 393.549011
-5.931534 59.622986 395.715637
-5.843153 57.282043 401.560760
-5.826327 58.202045 400.251495
-5.866454 57.031422 395.409637
-5.748463 57.003918 402.130341
-5.790370 58.669300 392.604675
-5.762268 59.889553 394.657562
-5.703510 59.979504 393.804199
-5.614051 58.777996 399.085632
-5.602884 58.518353 399.589233
-5.592681 59.797852 395.252075
-5.496997 56.466366 402.622803
-5.471008 55.945873 403.064972
-5.463832 59.297169 397.412079
-5.491066 59.720058 392.983734
-5.450269 56.675930 396.034027
-5.403226 56.283924 396.452209
-5.345342 58.972298 398.320160
-5.322083 55.632587 397.191101
-5.292861 54.818562 403.955536
-5.262341 57.985626 400.797913
-5.194610 55.244720 397.605011
-5.209447 57.255291 401.881195
-5.176867 54.797424 398.012939
-5.272037 59.087261 392.551147
-5.268070 58.722256 393.147888
-5.149423 59.961498 394.860626
-5.076714 57.752071 401.272614
-5.149742 58.110645 394.300934
-5.052254 59.351910 397.964294
-5.038862 58.887451 398.950989
-5.023299 56.880169 402.392059
-5.013360 58.646725 399.595032
-5.068212 57.771584 394.807922
-5.065627 58.394806 393.792419
-5.015887 59.862331 395.849670
-4.992170 59.631008 396.824310
-4.974951 55.594601 403.490723
-5.041703 60.054878 393.683044
-4.903503 58.233070 400.383453
-4.928440 60.065304 394.355194
-4.815999 54.572323 404.174255
-4.895164 59.602203 392.835907
-4.815662 56.445278 402.826996
-4.796760 56.281105 396.684296
-4.798630 57.258667 395.680603
-4.616030 55.787262 397.118317
-4.636539 58.780300 393.392181
-4.541681 55.388153 397.699524
-4.530191 57.431812 401.916656
-4.504090 59.516022 397.904785
-4.565072 58.280849 394.087036
-4.454614 59.021420 399.123810
-4.385083 58.770519 399.624695
-4.450657 60.132076 393.916565
-4.376089 56.869366 402.563232
-4.425839 59.161556 392.798187
-4.358367 55.490505 403.639740
-4.368391 59.696228 396.889984
-4.323377 54.923450 403.992279
-4.237403 54.688007 398.267273
-4.212695 58.286079 400.791656
-4.166315 56.379829 402.980530
-4.187881 60.101498 395.012787
-4.136128 57.887554 401.301636
-4.166891 56.590767 396.561096
-4.149019 59.971020 395.619751
-4.045912 55.917263 403.360046
-4.102200 59.843700 393.390350
-3.980743 59.664734 397.463226
-3.976043 59.216564 398.675934
-3.953765 57.528042 401.819092
-4.018291 57.723236 395.156097
-3.956827 55.858608 397.335907
-3.984790 60.249275 394.325836
-3.997554 58.263039 394.445984
-3.902941 55.337276 397.785248
-3.812844 57.230648 402.316925
-3.787838 54.635235 404.231903
-3.795556 58.835873 399.608124
-3.760279 57.225246 395.908356
-3.723148 59.954365 396.190918
-3.673313 54.911884 398.280945
-3.672283 55.331928 403.829437
-3.648267 59.434479 398.106659
-3.569339 59.781654 396.933838
-3.560828 59.140564 392.969696
-3.474631 60.203060 394.650543
-3.471153 58.662609 393.820190
-3.375577 57.905010 401.301819
-3.363447 58.494427 400.536194
-3.351900 56.404884 403.070221
-3.300461 59.198883 398.883179
-3.345863 57.694191 395.507385
-3.313894 57.051250 396.300751
-3.222485 59.934906 396.529633
-3.196020 54.343048 398.855682
-3.123539 56.965393 402.506073
-3.133146 60.202118 394.205353
-3.146077 58.340801 394.473572
-3.090231 55.970093 397.454346
-3.109233 59.881519 393.451385
-3.041508 54.730427 404.256622
-2.975512 59.646790 397.565186
-2.953799 58.947456 399.517944
-2.994498 56.747261 396.659393
-2.964941 60.106304 395.381226
-2.928354 55.246990 398.136353
-2.824194 55.721893 403.623505
-2.811308 57.839870 401.519623
-2.734365 57.151428 396.224243
-2.645763 58.683056 400.095795
-2.602100 59.343361 398.311188
-2.625559 59.934242 396.457977
-2.551381 55.068050 404.042419
-2.574969 59.055031 393.230499
-2.500477 59.792805 397.106110
-2.488451 55.035870 398.462311
-2.485652 59.587093 393.315613
-2.391584 54.390419 398.893005
-2.373379 58.142590 400.951324
-2.428199 60.181618 394.283081
-2.325188 57.413509 401.995575
-2.355675 58.748402 393.646271
-2.251432 59.111919 399.083466
-2.180713 57.817890 401.572906
-2.234189 58.116768 394.948334
-2.185484 56.613983 402.850403
-2.181873 56.185055 397.459137
-2.124885 55.365181 398.158051
-2.090353 59.590858 397.815216
-2.106712 57.152294 396.283264
-2.062984 59.903603 393.782379
-2.052544 58.518360 394.095093
-1.983999 57.087566 402.440765
-2.036646 57.665638 395.512482
-1.946909 55.072704 404.042877
-1.986876 60.129974 394.833374
-1.916429 59.936951 396.537109
-1.866941 54.826824 398.617798
-1.835352 55.826832 403.465973
-1.837269 55.791798 397.843689
-1.795689 59.742840 397.172333
-1.849718 56.754463 396.807434
-1.695887 59.040096 399.271271
-1.696021 58.594753 400.322266
-1.654585 60.026165 395.970459
-1.620636 58.806324 399.801849
-1.582279 56.288647 403.138641
-1.499121 59.512493 397.834961
-1.496998 57.776466 401.458374
-1.514850 59.194469 393.273926
-1.307076 59.789379 393.862610
-1.248441 56.753986 402.536438
-1.222108 54.717232 404.060730
-1.242080 55.073437 398.447083
-1.220308 55.543774 398.066864
-1.133953 59.158222 399.093353
-1.172398 58.492634 394.112305
-1.101107 55.296780 403.797241
-1.095988 57.335278 401.881958
-1.077368 58.848125 399.610504
-1.094159 60.050911 394.278473
-1.053745 59.939625 396.121429
-1.070328 58.857372 393.429657
-1.056546 60.136852 394.818268
-0.998892 59.317211 398.562500
-1.031419 60.096382 395.555298
-1.058901 58.239307 394.675140
-0.983702 58.239052 400.687347
-0.958835 58.575691 400.140228
-0.936977 59.793079 397.026489
-0.938247 57.743294 395.388367
-0.883088 57.882915 401.208099
-0.908350 55.959431 397.805817
-0.811557 59.496143 398.000824
-0.842181 57.291988 396.084320
-0.825850 56.698242 396.947418
-0.704368 55.757210 403.291351
-0.689551 54.515564 398.925171
-0.552546 59.047798 399.060822
-0.509180 57.565956 401.586914
-0.530241 59.233864 393.421082
-0.461232 58.746185 399.592712
-0.459184 59.960232 396.029022
-0.474320 59.723797 393.829102
-0.427312 56.633381 402.534424
-0.428624 59.968300 394.385498
-0.315656 59.865475 396.579803
-0.314210 57.820354 401.042450
-0.242695 59.244812 398.612885
-0.292761 56.221172 397.454681
-0.249725 54.695240 403.878265
-0.267378 55.180225 398.466888
-0.270835 58.788143 393.697083
-0.193436 58.475647 400.063995
-0.177138 60.043484 395.502075
-0.153615 58.472260 394.277954
-0.088267 54.413734 398.996185
-0.117278 57.909107 395.175873
0.052542 56.212410 402.847626
0.050361 57.117615 401.839630
0.098709 59.476410 397.778412
0.123969 59.648815 397.218262
0.120120 59.007202 399.157196
0.078374 55.649685 397.971893
0.114769 58.228504 400.553223
0.173802 58.710011 399.680023
0.158276 59.990192 394.737305
0.179820 59.857449 395.986267
0.171141 57.179543 396.333527
0.233984 59.690437 394.173462
0.243999 56.089489 397.626953
0.242669 56.780872 396.909637
0.377379 59.778778 396.727814
0.358300 57.637371 395.568817
0.437539 59.194607 398.384216
0.446078 55.310028 403.368073
0.447530 59.982281 395.346527
0.561594 58.891022 393.683197
0.590030 55.769924 403.035980
0.640284 59.512035 397.574799
0.610708 54.722137 398.806122
0.590105 58.032246 395.017303
0.675116 55.158394 398.510193
0.769807 58.785797 399.444244
0.752981 58.411572 394.383270
0.784363 57.681408 401.090973
0.793261 54.386566 403.834625
0.837658 59.829712 395.978546
0.884582 56.385658 402.408051
0.878948 56.784740 396.774689
0.926223 59.841133 394.670746
0.923382 57.784054 395.394165
1.018871 54.967281 403.439270
1.041068 59.905365 395.347504
1.058369 57.292847 401.405884
1.086349 55.444832 398.221191
1.102880 56.836517 401.944092
1.172970 57.880810 400.594147
1.258754 54.566189 398.860748
1.261510 59.540199 394.080048
1.317180 59.533730 397.505524
1.304751 55.999104 402.612488
1.296670 57.424908 395.760101
1.304127 57.037292 396.412903
1.303810 55.833004 397.778748
1.308694 54.997993 398.474823
1.365909 59.746563 396.524506
1.376032 54.383785 403.606567
1.394832 55.518665 402.959381
1.417083 56.247803 397.282532
1.468055 58.341564 399.877808
1.514496 59.216499 398.243378
1.500457 59.869038 395.017487
1.530419 58.959064 398.743134
1.549030 55.009167 403.176544
1.574493 59.896126 395.570190
1.610017 58.604279 393.647095
1.689476 57.329102 401.205414
1.731498 56.324757 402.290741
1.759461 57.256359 396.045868
1.806907 57.697384 395.333862
1.850012 56.850391 401.564911
1.829213 58.224567 394.515961
1.838553 56.754780 396.597565
1.880834 54.789131 398.590881
1.936892 58.000530 400.280426
1.965947 55.933441 397.529388
1.965168 55.359077 398.075500
2.096874 59.204731 397.917236
2.073277 55.756123 402.633026
2.095027 58.565376 399.265961
2.097116 58.329803 393.343567
2.110287 59.733192 395.713348
2.230967 59.405788 397.103027
2.227073 59.517651 394.538544
2.280137 54.814625 403.201569
2.269582 57.872280 394.966797
2.269171 56.498699 396.861908
2.327695 57.190998 401.230499
2.415287 58.283413 399.641754
2.402350 57.342999 395.796051
2.435611 54.540966 398.644714
2.459306 54.992359 398.332367
2.501017 56.282215 402.072845
2.512803 58.941017 394.013672
2.587199 59.582184 396.187469
2.620883 57.380566 400.708679
2.685596 58.660927 399.000702
2.668635 55.750538 402.417084
2.660442 55.804310 397.502441
2.695596 58.034260 394.587128
2.712561 57.548073 395.293549
2.770208 59.080097 397.886292
2.799649 58.859901 398.375458
2.908378 58.148464 393.637268
2.925052 56.454121 401.676270
2.887260 56.277767 397.015350
2.897522 55.296516 397.928864
2.958650 56.808929 396.207794
2.982228 55.115780 402.639374
3.017524 58.246185 399.457031
3.098401 57.747089 400.208954
3.108130 59.446102 396.420624
3.104598 59.253628 394.492126
3.103007 54.739452 398.382294
3.180904 59.554043 395.388306
3.248926 58.360168 394.112885
3.320017 59.184826 397.223816
3.430309 58.734241 398.313904
3.418210 57.533306 395.073303
3.456206 59.307465 394.945312
3.428195 56.205257 396.825836
3.421634 55.475323 397.545074
3.592851 58.123859 399.212646
3.581698 57.951855 394.420197
3.630031 57.109203 400.661713
3.643131 56.350746 401.421051
3.657936 57.129482 395.576019
3.677509 58.957836 394.416351
3.659033 56.836403 396.088501
3.715804 59.186634 396.712830
3.753835 58.981544 397.498718
3.983435 57.669857 399.729218
3.987954 55.803833 401.812073
3.945719 55.768665 397.142120
3.969016 54.790630 397.940063
4.029297 59.276028 395.982422
4.026601 58.584682 393.971863
4.049692 59.156269 395.122894
4.105654 57.340900 400.151886
4.130266 58.187355 398.910461
4.120068 54.991241 402.239716
4.123718 58.080139 394.250092
4.130411 55.370674 397.461823
4.191393 58.718544 397.736816
4.228490 56.674206 396.102417
4.299429 57.651741 394.585297
4.368246 58.902199 394.675812
4.415610 55.931408 396.736664
4.520928 58.262218 398.481079
4.658678 56.693020 400.687805
4.629367 58.485332 397.969940
4.631835 55.626472 401.637909
4.646884 57.251289 395.025787
4.646371 56.846951 395.566315
4.713748 57.460598 399.559021
4.715837 58.007263 398.943878
4.732773 59.026619 396.038696
4.728626 58.798321 397.204132
4.776024 56.140697 401.128876
4.788087 57.162270 400.104462
4.825494 54.368996 402.357788
4.893694 55.253841 397.325897
4.949362 58.636322 394.540863
5.112950 58.178253 398.474335
5.092777 56.464504 395.928375
5.174413 56.460316 400.695618
5.184829 58.948513 395.458344
5.203813 54.706348 397.636200
5.268529 57.802937 398.855560
5.278960 58.197968 394.326538
5.320268 57.278896 399.618561
5.309106 55.552399 401.329102
5.358480 58.390137 397.574860
5.395186 56.712688 400.211884
5.385858 54.846321 401.772400
5.456477 55.881313 396.457886
5.521317 58.721252 396.463287
5.539647 56.037636 400.788727
5.520224 57.268383 394.783783
5.523872 55.367779 396.927155
5.565000 56.534393 395.553528
5.709534 54.818451 397.252350
5.737244 57.921223 398.442902
5.739748 58.464321 397.074066
5.816761 57.382931 399.208160
5.872015 58.710033 395.508820
5.929382 57.006710 399.749115
5.888764 55.862762 396.022278
5.935458 54.366005 397.535065
5.966839 56.896412 394.984802
6.008399 58.543091 394.999451
5.997120 54.753754 401.391449
6.037988 55.613064 400.893860
6.053002 58.611031 396.124359
6.076333 57.267376 394.441620
6.116239 55.033020 396.842743
6.143002 57.922981 397.979828
6.188386 56.487862 400.051910
6.231599 57.483753 398.697083
6.236069 58.170086 394.643280
6.332640 58.304028 396.879181
6.443643 55.736675 400.438812
6.425738 56.129181 395.792816
6.498771 58.468777 395.379425
6.591012 58.423290 395.946350
6.573411 57.966305 397.299896
6.598547 56.501064 399.570404
6.582935 55.202736 396.447571
6.696060 57.562984 394.382202
6.709989 54.720058 396.787933
6.803504 57.458729 398.431244
6.889349 56.889202 399.174866
6.901423 56.737305 394.683685
6.898357 55.076454 400.753021
6.957359 58.209015 395.170776
6.988983 57.702137 397.569733
6.988322 54.512897 401.099670
7.023685 55.704853 400.232727
7.038316 58.016273 396.866669
7.159406 57.901417 394.737000
7.161506 58.134579 396.108246
7.241738 54.913723 396.207123
7.251459 55.718456 395.496552
7.328948 57.342861 398.030029
7.318851 56.037697 395.042206
7.551560 57.714447 396.793060
7.545410 55.585873 399.991150
7.558644 56.877186 398.512909
7.593102 57.434383 394.592834
7.705527 57.988392 395.948334
7.703970 55.313972 395.462402
7.716261 54.361328 396.400635
7.779924 56.059109 399.246674
7.833747 57.835365 395.166107
7.809616 55.098888 400.107361
7.832645 56.471035 398.820160
7.921926 56.590412 394.486511
7.984984 54.308193 400.602539
8.108695 57.110260 397.531982
8.100674 55.639454 394.759918
8.194494 56.553875 398.307617
8.250446 54.757996 395.701630
8.382746 57.489361 396.329254
8.452086 57.437611 395.161194
8.570323 57.541790 395.696991
8.589714 57.065845 396.820038
8.711168 56.095547 394.516266
8.703010 54.359631 395.643188
8.726668 55.219494 399.240601
8.727707 54.336048 399.892639
8.748205 56.404846 397.910492
8.774422 56.754688 394.675873
8.778827 55.678799 398.798828
9.016566 56.674282 397.332733
9.039027 55.237263 394.761230
9.080012 55.903389 398.274384
9.177001 56.814808 396.737305
9.200290 54.689819 399.226318
9.235706 57.041065 395.775116
9.294733 55.924152 394.618011
9.310766 56.120178 397.692963
9.317394 56.435452 394.925873
9.477692 56.711739 396.179321
9.553810 55.570477 398.048889
9.585700 56.567535 394.405884
9.603638 56.270962 397.069885
9.700778 54.665169 398.849670
9.729506 55.069427 398.356720
9.750022 56.367584 396.498627
9.811932 56.399117 395.244934
10.007735 56.401825 395.969269
10.063512 55.727577 397.063934
10.107457 55.449318 394.763611
10.118840 55.403179 397.541077
10.139349 54.466412 394.739960
10.167502 55.992584 394.669708
10.181412 54.534615 398.283966
10.381948 56.063587 395.544342
10.512168 55.509266 396.722565
10.536069 55.736816 396.124420
10.573921 54.469280 397.800751
10.766245 54.688251 397.273956
10.884350 55.371742 395.704132
11.040412 54.659939 396.682831
11.056435 55.191433 394.897552
11.107985 54.834408 395.966400
11.361427 54.569210 394.996979
-13.908612 52.776905 393.656006
-13.813407 51.776653 394.317352
-13.836453 52.292896 394.577881
-13.803630 52.196632 393.119263
-13.813614 53.560547 393.314636
-13.700263 51.288197 395.056244
-13.757894 52.912495 394.637024
-13.676369 51.542721 395.653992
-13.640508 52.339516 395.505402
-13.655698 52.943951 392.228973
-13.530139 50.528934 395.046661
-13.680817 54.087978 393.175598
-13.519681 50.880474 395.777191
-13.512575 52.088543 393.898346
-13.568476 53.834438 391.948700
-13.564157 53.942890 393.947144
-13.398162 49.968243 396.045807
-13.486814 53.522987 395.295166
-13.387171 51.194881 396.380890
-13.346741 50.966091 394.710602
-13.456926 53.593494 392.536835
-13.296412 49.659367 396.885742
-13.341571 51.641731 393.552032
-13.358836 52.905739 396.300018
-13.373710 53.185402 395.789856
-13.229837 50.306122 395.584808
-13.285639 52.361843 396.496094
-13.247577 51.322681 397.048401
-13.355721 53.962025 394.941467
-13.172841 50.482918 397.141693
-13.071979 49.782864 395.281799
-13.053853 49.299603 395.842865
-13.065892 51.144226 394.150085
-13.138343 53.704487 396.062439
-13.052747 51.722652 397.453735
-13.057212 52.543312 397.034760
-13.050814 53.171028 396.697937
-12.927980 49.409397 397.584320
-13.024379 53.087624 392.276276
-12.887244 48.692059 397.621277
-12.886664 50.616165 394.727997
-12.900362 51.194008 397.950470
-12.942195 52.755672 392.793243
-12.824302 49.839794 398.142456
-12.832379 50.610062 398.201630
-12.738966 48.099522 396.903473
-12.740361 49.067196 398.253387
-12.701285 49.042660 396.486450
-12.828826 53.630714 396.963715
-12.821134 54.012970 396.494629
-12.739242 52.057442 393.486053
-12.729080 51.733517 398.175690
-12.649371 48.261662 398.122772
-12.669005 52.852638 397.716675
-12.693748 54.169575 392.095917
-12.576220 52.302959 398.309296
-12.594611 53.613899 392.441650
-12.477792 47.554668 397.991455
-12.503081 50.381214 398.801514
-12.461987 48.697227 398.813293
-12.474602 51.603920 398.792542
-12.378589 48.127407 397.485657
-12.378111 50.472549 394.977875
-12.466574 52.919064 393.180084
-12.349697 49.428555 395.657715
-12.360291 47.411545 397.217133
-12.410485 51.957619 394.058350
-12.436966 53.988209 397.324249
-12.354365 50.798592 399.196045
-12.330031 49.134373 399.171051
-12.309465 49.984165 399.194855
-12.314774 52.519714 398.790497
-12.211713 48.889435 396.068329
-12.223026 46.923325 398.098022
-12.229837 51.474377 394.561401
-12.197015 47.662716 399.043304
-12.186114 49.558346 399.599396
-12.170924 47.169502 398.657562
-12.127943 53.469318 398.647827
-12.010240 46.759396 397.524689
-12.074858 52.547894 394.203278
-12.092105 53.364143 393.182770
-11.912053 47.817837 396.743866
-11.969913 52.084633 399.625977
-11.894650 49.477528 396.104736
-11.947252 46.361946 398.495392
-11.885880 50.293987 395.658508
-11.858612 48.401226 396.326843
-11.921706 51.171555 399.792664
-11.879049 51.511696 395.066223
-11.857472 48.729584 399.879913
-11.836113 46.778873 399.199524
-11.819675 50.560635 400.062469
-11.813151 49.923870 400.161896
-11.770752 46.254139 397.816620
-11.761974 53.135082 394.024475
-11.781088 53.954628 393.079102
-11.765452 53.594612 393.590851
-11.704799 45.769760 398.270477
-11.681935 47.626179 399.976776
-11.631570 51.065254 400.298096
-11.619662 53.882229 398.994781
-11.530208 47.305996 397.216919
-11.537530 49.114491 400.466980
-11.543619 52.620106 394.795471
-11.452585 51.612347 400.477966
-11.471905 53.312786 399.690735
-11.459520 46.702759 399.840515
-11.402751 50.672478 396.030670
-11.432343 51.927986 395.418396
-11.349170 47.767319 396.885834
-11.356212 49.753281 396.365326
-11.407574 52.303890 400.290741
-11.368322 45.811069 397.699860
-11.388328 45.870754 399.358185
-11.320967 54.043854 393.505463
-11.178095 49.271202 396.642944
-11.208968 47.357204 400.545990
-11.191115 50.130898 400.837128
-11.082808 51.984699 400.862183
-11.058838 50.970547 401.005920
-11.071040 52.851215 400.613495
-10.980381 48.344402 397.013275
-10.998507 48.758572 401.122192
-10.941012 47.362782 397.194916
-10.986094 49.738731 401.201965
-10.964167 52.651348 395.390625
-10.984972 53.610584 394.575836
-10.931454 47.703594 400.949738
-10.890648 45.441643 397.921600
-10.915301 45.797798 400.140778
-10.854099 51.879589 395.936890
-10.789868 48.909512 397.023682
-10.844041 54.053326 400.171112
-10.816048 53.582882 400.528778
-10.756178 51.565945 401.260315
-10.759515 49.231537 401.406647
-10.753075 48.239315 401.258789
-10.768973 46.431084 400.638336
-10.697915 51.324379 396.342102
-10.653789 52.433552 401.197479
-10.606702 50.129551 396.961670
-10.647715 53.212139 401.063202
-10.568854 50.777710 396.784454
-10.627278 45.867275 400.625824
-10.559319 46.786404 397.498016
-10.482295 50.434376 401.707977
-10.461236 48.191296 401.773407
-10.489892 52.577492 396.036957
-10.424457 47.618526 397.444489
-10.448525 53.126015 395.628265
-10.400589 53.868782 400.869049
-10.298993 48.535316 397.537262
-10.343863 46.785259 401.471313
-10.279181 52.002132 396.399078
-10.216583 51.530396 402.034058
-10.235274 45.459888 397.795013
-10.246683 53.708485 395.378510
-10.183716 51.428570 396.732239
-10.190896 52.780922 401.755157
-10.194823 46.124268 401.201508
-10.197961 45.473675 400.883392
-10.062919 49.833569 397.492218
-10.050356 53.534237 401.477722
-9.976464 49.261925 397.658722
-9.973380 47.822754 397.811798
-9.954837 49.829849 402.359711
-9.937629 51.111935 397.202454
-9.958117 52.910797 396.211273
-9.948527 54.211941 401.285248
-9.923845 52.422852 396.637024
-9.891806 46.902927 397.892303
-9.848039 52.282997 402.212097
-9.819874 46.748196 401.947113
-9.792580 48.516579 402.333710
-9.784141 48.521400 398.004608
-9.763675 47.553123 402.279144
-9.743306 50.583851 397.527893
-9.688846 50.755230 402.634857
-9.644992 49.064671 402.629181
-9.596907 50.021461 397.732483
-9.534910 48.044510 402.580322
-9.556777 54.016853 401.783051
-9.559454 53.429699 396.234100
-9.477653 52.609333 402.635101
-9.477827 54.227730 395.747589
-9.464395 45.641842 401.762512
-9.448314 51.530556 397.288055
-9.459987 45.984367 398.085510
-9.415957 47.050686 402.446686
-9.430028 47.249172 398.215393
-9.416778 52.280285 396.999664
-9.299800 49.471027 402.972595
-9.315558 46.378990 402.324371
-9.266139 47.553570 402.671356
-9.280133 51.142147 397.690643
-9.250358 51.853054 402.891571
-9.248343 49.556892 398.179443
-9.207599 51.159599 403.083588
-9.201374 53.339966 402.383026
-9.155033 48.296932 402.967499
-9.133468 48.893929 403.036163
-9.119703 48.405708 398.452240
-9.026419 50.462929 403.171234
-9.047964 54.081997 396.155548
-9.004691 52.445251 403.045624
-8.991742 52.816170 397.078156
-8.951064 51.675140 397.569794
-8.884483 46.844673 402.816742
-8.914109 50.787827 398.010406
-8.893386 50.192585 398.181152
-8.869117 46.726727 398.538757
-8.824347 45.494347 402.503265
-8.810601 46.090374 402.760040
-8.760096 45.657948 398.351990
-8.701752 49.355049 398.519409
-8.666359 47.520706 398.727203
-8.618377 53.939381 396.564819
-8.597141 52.221565 397.634613
-8.578032 48.856922 398.805634
-8.488898 47.203167 403.280853
-8.555907 53.500404 396.958191
-8.511858 52.852161 403.136902
-8.458055 49.630062 403.654999
-8.414689 48.746758 403.618347
-8.441466 46.991333 398.795288
-8.386053 45.545139 402.889282
-8.304038 51.304913 403.660522
-8.359714 50.929302 398.277893
-8.230859 47.761677 403.546844
-8.252313 48.382725 398.965546
-8.167335 46.386566 403.303772
-8.185059 53.834133 402.786682
-8.048285 52.462067 403.579468
-8.098340 45.522991 398.711426
-8.051396 46.211853 398.927124
-8.045975 50.389385 398.690491
-7.982162 54.257355 396.855042
-8.020402 49.429913 399.069397
-7.910023 46.941322 403.609161
-7.869325 50.505718 404.048676
-7.907933 47.310173 399.169006
-7.810075 45.930191 403.281006
-7.893371 52.126118 398.124359
-7.772024 51.126495 404.098328
-7.738843 48.981400 404.146545
-7.783493 51.534679 398.462738
-7.651429 47.738720 404.008942
-7.638677 49.635025 404.195435
-7.665372 53.615017 403.260223
-7.699177 53.340527 397.538055
-7.569397 52.751503 398.110809
-7.530652 45.734383 398.964569
-7.411675 50.258411 404.297607
-7.415536 46.181400 403.730591
-7.458831 54.076569 397.198242
-7.415620 51.800732 404.079376
-7.366200 48.404274 404.208496
-7.390655 53.135525 403.755615
-7.363998 54.216259 403.290344
-7.422414 48.567043 399.430939
-7.418563 51.261120 398.863129
-7.362875 47.067631 399.267548
-7.334884 47.715656 399.371216
-7.183070 45.383770 403.605927
-7.278522 49.810741 399.368347
-7.138124 48.920238 404.396210
-7.185716 53.712402 397.720184
-6.997701 52.660244 404.089722
-6.956663 47.858349 404.316833
-7.085572 49.287231 399.574860
-6.947816 49.481129 404.444183
-6.954278 50.631630 404.449219
-7.040784 52.455166 398.512695
-7.026636 51.735962 398.807922
-6.972398 50.295467 399.228363
-6.813390 46.912151 404.136047
-6.961754 50.904060 399.154999
-6.864398 46.390526 399.359467
-6.809524 53.399616 403.982635
-6.730010 51.548004 404.471313
-6.775294 47.184216 399.512299
-6.659963 48.483540 404.503754
-6.617794 45.539913 404.014923
-6.545982 45.437180 399.221436
-6.591736 49.825245 399.603241
-6.388531 47.889114 404.596954
-6.421231 54.232899 403.814514
-6.327549 52.227497 404.450806
-6.268130 48.948513 404.754639
-6.268529 49.618256 404.850311
-6.415576 52.840424 398.748138
-6.369013 53.393276 398.407715
-6.402967 52.114971 398.940826
-6.337117 48.430168 399.738159
-6.223952 45.986584 404.320892
-6.331873 51.178242 399.231323
-6.151645 50.281837 404.819733
-6.299085 50.426357 399.522308
-6.220070 47.473698 399.691132
-6.142867 54.290993 397.880524
-5.981019 46.557354 404.622253
-5.925737 48.304516 404.813812
-5.946664 45.466915 399.399017
-5.891326 47.331055 404.655121
-5.888195 51.615536 404.832977
-5.898900 53.731747 404.275787
-5.856001 50.943447 404.848358
-5.890001 52.375134 399.046082
-5.883167 51.709530 399.286346
-5.754300 46.412746 399.782806
-5.811583 53.576180 398.506927
-5.671840 45.659378 404.520752
-5.711114 47.647884 399.907135
-5.583226 52.354885 404.758728
-5.710279 50.877007 399.588654
-5.488651 45.871925 399.527557
-5.575862 49.440315 399.902679
-5.387243 49.760326 405.096527
-5.379688 47.137650 404.961761
-5.361688 54.204174 404.172455
-5.467729 50.008530 399.834930
-5.303087 48.164669 404.802979
-5.438585 53.219173 398.892792
-5.326564 47.018242 399.815338
-5.431904 52.114868 399.335480
-5.225539 48.906345 404.865356
-5.313549 54.278755 398.320465
-5.312045 48.185192 399.922089
-5.204773 53.524384 404.554596
-5.182561 46.269772 399.766479
-5.097901 45.957424 404.595825
-5.038463 46.588818 404.966766
-4.986224 50.911190 405.110870
-5.046558 47.627289 400.029083
-4.982681 52.991261 404.773956
-4.837928 49.326584 405.197723
-4.819193 50.204266 405.208466
-4.884107 50.215527 399.938232
-4.727257 48.373810 405.195435
-4.814505 52.351330 399.368317
-4.667092 45.630016 404.921326
-4.657655 52.094227 405.023041
-4.758230 49.626789 399.975677
-4.634550 45.595348 399.712769
-4.672166 48.957951 400.083527
-4.546928 47.427856 405.238281
-4.538596 47.140064 399.966522
-4.460631 53.702126 404.630035
-4.486914 53.867195 398.837463
-4.363889 50.583969 405.230713
-4.467282 52.992214 399.312775
-4.473603 50.909443 399.914978
-4.347585 47.706982 400.227051
-4.288629 46.502716 405.164185
-4.300997 54.265980 404.402222
-4.293422 46.573441 400.012970
-4.254053 46.016548 404.860687
-4.153734 49.963741 405.340149
-4.279651 52.183308 399.611450
-4.172109 48.266933 400.341034
-4.078855 49.305569 405.395477
-4.012001 53.118080 404.825317
-3.983750 45.781536 399.834747
-3.959747 45.667461 405.247192
-3.885818 51.473549 405.087524
-3.988036 49.695183 400.178314
-3.905301 52.726910 399.477631
-3.740400 50.642509 405.306000
-3.697248 48.081177 405.449707
-3.693727 46.643536 405.339447
-3.684792 52.582428 405.061371
-3.634965 53.888771 404.663422
-3.622420 48.450703 400.344086
-3.519542 49.801048 405.464508
-3.539988 47.262909 405.397583
-3.495541 51.947632 405.181122
-3.597239 53.295174 399.417175
-3.445235 46.633160 400.251617
-3.398656 47.521053 400.282471
-3.433903 49.138081 400.304291
-3.390846 49.728420 400.260468
-3.288100 53.106823 404.911591
-3.367524 52.007030 399.822845
-3.237610 45.845978 405.349243
-3.146051 50.280376 405.428955
-3.169460 45.848591 400.069305
-3.119970 49.381100 405.498108
-3.128595 46.885342 405.496124
-3.081664 47.591122 405.255859
-3.174014 50.699741 400.204926
-3.170064 52.741859 399.652313
-3.005191 51.199093 405.109741
-2.996422 48.733170 405.520660
-3.028519 48.500111 400.433014
-2.979576 52.450253 405.060333
-2.838218 53.542873 404.750519
-2.801956 49.801231 405.257080
-2.770123 54.102520 404.486481
-2.720643 49.416729 400.461365
-2.690054 53.262432 399.519806
-2.627145 46.463482 405.186676
-2.589579 47.689358 405.561218
-2.572684 45.715958 400.218231
-2.545821 46.644741 400.290009
-2.606235 51.513805 400.134552
-2.480661 47.988758 400.454498
-2.494750 52.461315 399.901184
-2.318789 51.165585 405.274628
-2.231577 49.556938 405.545593
-2.217633 48.466019 405.312256
-2.217388 52.170773 404.902008
-2.177448 47.284119 405.320282
-2.193883 49.940590 400.353516
-2.166883 53.023952 399.779938
-2.125056 45.419331 405.411652
-2.124737 51.929871 400.071381
-2.075377 53.877316 404.555511
-2.057893 47.978054 405.588226
-2.077908 50.779987 400.345612
-2.064841 53.566902 399.454773
-2.032165 48.349365 400.586243
-2.042091 49.037659 400.493103
-1.901655 46.105305 405.219757
-1.836410 45.808300 400.313934
-1.800757 50.566097 405.357971
-1.799795 53.142822 404.843292
-1.741945 48.723309 405.585419
-1.708316 52.632732 399.969299
-1.670395 46.925106 400.463837
-1.561349 49.318832 405.309448
-1.534042 47.762218 400.550629
-1.496468 51.851715 400.129120
-1.477425 54.229004 404.366058
-1.440180 51.523254 405.190277
-1.442658 53.280769 399.644714
-1.370339 46.192043 400.386353
-1.372605 46.249622 405.533020
-1.319158 48.812881 400.490265
-1.291840 47.253841 405.636749
-1.241668 52.569805 404.957367
-1.241786 50.036167 400.485962
-1.231109 51.296791 400.352936
-1.167713 54.209370 399.131531
-1.151125 48.690159 405.602844
-1.147392 47.957405 405.531036
-1.120206 46.695080 400.505524
-1.110568 52.410950 399.940460
-1.105282 45.513218 400.278290
-0.943314 49.567135 405.497284
-0.950450 53.647503 399.389130
-0.870485 50.141098 405.444061
-0.810317 52.048145 404.827789
-0.814631 54.256805 404.253937
-0.776304 51.672626 400.145691
-0.760106 53.214870 404.736633
-0.727747 49.234921 400.620819
-0.674447 53.142574 399.705933
-0.671841 47.124413 400.620239
-0.578073 48.525448 400.620575
-0.563023 50.962643 400.378021
-0.490698 52.424538 400.068695
-0.531594 45.896618 405.511932
-0.523949 48.198368 405.539398
-0.484974 47.833302 400.611847
-0.427578 51.338928 405.164093
-0.332170 47.166660 405.384949
-0.294724 50.018780 405.299957
-0.254700 52.450695 404.617645
-0.236512 46.157997 400.409088
-0.197206 51.881447 400.186188
-0.205220 46.517147 405.559723
-0.167877 53.847321 399.482758
-0.076356 49.613873 400.533325
-0.087538 50.647671 405.255829
-0.009419 45.417225 405.392059
0.008391 47.927792 405.536224
0.092794 52.988197 399.679230
0.117770 48.211678 400.679535
0.110524 47.012993 400.510468
0.100935 49.362953 405.368652
0.146788 48.885132 400.597504
0.132390 53.946209 404.197845
0.166523 53.378658 404.427338
0.187443 48.635418 405.467194
0.216955 45.381943 400.207855
0.285102 50.648743 400.368744
0.272363 52.368755 400.020477
0.272551 51.698738 404.899750
0.364738 51.618969 400.160736
0.345272 49.877373 405.263031
0.347021 46.372520 405.473877
0.368725 52.319294 404.784821
0.563993 54.216015 399.213776
0.696789 49.394215 400.613983
0.735307 48.047619 400.619995
0.743650 50.907280 405.000092
0.790392 47.467064 405.394196
0.827541 51.529034 404.829895
0.916177 50.889336 400.455597
0.873545 50.217072 405.166779
0.956923 52.794811 399.840454
1.013141 50.126404 400.447968
0.970588 47.493042 400.554596
0.991736 45.635880 400.236908
1.071763 52.066586 400.147949
1.009742 46.585690 405.377686
1.034519 52.693752 404.455902
1.039527 48.198555 405.279755
1.054237 45.528675 405.295319
1.068819 52.095074 404.626648
1.110072 49.176723 405.274811
1.176388 46.324818 400.388641
1.258510 53.662014 399.451874
1.293567 48.523472 400.562469
1.305437 50.608013 404.967865
1.360964 47.005527 400.488678
1.442864 51.338436 400.247864
1.451463 49.740185 400.510101
1.483328 47.986687 400.539032
1.454346 51.302052 404.738251
1.454260 46.192966 405.345795
1.559038 50.742626 400.446747
1.517253 53.378998 404.107635
1.617542 53.198132 399.616669
1.638925 51.929379 404.468231
1.762269 45.420380 400.163910
1.833869 49.692471 404.999847
1.879406 45.980816 400.267914
1.896357 47.359241 400.570892
2.000817 51.748596 400.049011
1.930686 50.393169 404.863098
2.127643 51.141079 400.273438
2.000602 47.908215 405.167755
2.029271 46.703064 405.214691
2.053447 51.118053 404.642303
2.043835 49.116482 405.008484
2.048549 48.523724 405.141296
2.137570 48.223610 400.508484
2.162915 46.742390 400.416748
2.198192 51.986507 404.342041
2.212063 54.234089 403.437744
2.245352 52.602688 404.125336
2.363609 52.595325 399.767731
2.338467 47.419445 405.066376
2.431832 47.679913 400.431793
2.502548 53.932320 399.042694
2.547671 48.677479 400.411407
2.506509 53.373817 403.872650
2.631375 51.627186 400.108521
2.547902 46.229282 400.262970
2.636176 49.435741 400.419861
2.525795 49.778183 404.778564
2.537462 48.071690 404.927002
2.664250 53.254436 399.364838
2.565384 50.375469 404.689606
2.636330 48.636353 404.968842
2.786653 50.025127 400.355103
2.700554 51.678097 404.259613
2.704685 51.024158 404.443237
2.867637 50.989326 400.227844
2.753464 45.907173 404.994507
2.796720 46.916191 405.014526
2.856690 52.401184 404.110809
2.983618 52.133022 399.839905
3.017297 46.836926 400.273987
3.068585 45.791412 400.179108
3.086388 53.665371 403.413239
3.040737 48.983047 404.753479
3.139811 48.436657 400.395935
3.114125 50.302795 404.534393
3.315905 51.475857 399.963043
3.284911 53.019135 399.424438
3.303159 50.949280 404.246338
3.346107 54.176403 403.103455
3.426126 47.369122 400.349976
3.531401 50.871761 400.056274
3.440170 46.330761 400.251434
3.396498 46.929150 404.727264
3.414476 51.563301 404.083801
3.415420 47.991917 404.680054
3.545583 49.529964 400.229126
3.675693 52.011921 399.753998
3.591310 53.324810 403.436310
3.700274 53.952663 398.725494
3.648430 46.209805 404.685883
3.609340 49.554424 404.566284
3.641520 50.263725 404.280792
3.880215 51.404213 399.812469
3.778994 45.839970 400.096466
3.865472 48.456814 400.282990
3.836271 52.409149 403.602509
3.873816 54.234646 402.837830
3.896199 47.308849 404.517975
3.922591 50.782429 404.140686
3.929583 48.993931 404.398193
4.007015 46.494701 400.088867
4.113517 50.606953 400.028259
4.131925 49.927834 400.108643
4.056522 46.668060 404.553192
4.105712 45.378998 399.835297
4.064300 51.385662 403.919312
4.101482 53.609413 403.091095
4.205371 54.083687 398.447968
4.347240 52.554218 399.298706
4.412163 51.138180 399.825531
4.383783 47.918537 400.133942
4.323235 48.276154 404.393982
4.317343 49.965832 404.083008
4.428103 54.030518 402.645447
4.470715 46.943775 400.026337
4.425131 52.091488 403.466064
4.421873 49.304565 404.228088
4.554698 45.976685 399.961395
4.533493 47.283619 404.433594
4.720478 51.951778 399.440186
4.632733 52.611370 403.278656
4.796281 50.206505 399.947388
4.787391 53.316914 398.705841
4.698809 51.384335 403.532135
4.737617 46.107407 404.349365
4.868220 48.971840 399.951813
4.927934 51.324184 399.594086
5.060474 49.546627 399.918030
5.045615 46.680809 399.826202
5.139085 52.293213 399.205658
5.121950 48.428905 399.898651
5.112344 54.222939 398.005554
5.191170 50.801460 399.652191
5.076931 52.834625 402.886322
5.085624 52.251961 403.123291
5.129906 47.074944 404.159271
5.114965 50.763134 403.577148
5.200980 45.647518 399.662201
5.143342 49.273777 403.857513
5.364129 50.077213 399.659698
5.381019 47.201626 399.796600
5.455055 51.408588 399.335663
5.360024 46.180565 404.056671
5.316831 50.009872 403.687042
5.376897 51.513836 403.247864
5.520786 52.551056 398.814484
5.520356 46.264736 399.555725
5.448072 48.418358 403.951447
5.524851 53.772114 402.250214
5.648220 48.156448 399.696503
5.606810 52.682384 402.732574
5.751828 49.576630 399.658508
5.830818 50.946365 399.382050
5.903083 52.875854 398.530609
5.817227 51.996578 402.945190
5.818769 50.424511 403.347137
5.863651 53.211910 402.374115
5.977279 53.417614 398.159760
5.956268 45.659168 399.307617
5.884243 51.091564 403.122833
5.961875 49.060883 403.493866
6.115099 51.835754 398.932343
6.032318 46.533657 403.748383
6.069582 45.979355 403.688080
6.174603 51.259686 398.997650
6.040596 49.742218 403.324890
6.214147 46.450283 399.415833
6.187882 47.098953 403.604584
6.179978 48.062336 403.614349
6.202041 51.503139 402.856476
6.316234 50.327839 399.217499
6.323209 47.251064 399.387512
6.333356 48.696003 399.391602
6.289144 52.652111 402.407593
6.369375 50.271721 403.087677
6.481012 53.439796 397.731873
6.480882 54.249783 401.529480
6.667120 52.919628 397.981171
6.697373 49.446770 399.151581
6.691003 53.617794 401.735565
6.694113 48.296535 403.323608
6.778141 46.773308 399.207092
6.813759 52.424408 398.246948
6.804574 54.236500 397.123993
6.759941 52.337017 402.262146
6.839099 47.874897 399.236359
6.841470 45.484226 399.004517
6.779925 49.279537 403.072418
6.913885 53.709255 397.421783
6.889445 46.413967 403.260254
6.952333 51.867035 398.436066
6.888514 50.962383 402.618011
7.022483 50.865887 398.679077
7.014572 50.170956 398.851654
7.012094 47.334770 399.157806
7.072239 48.610279 399.032928
7.112981 47.465179 403.046021
7.201028 52.741863 397.771027
7.215012 53.393307 401.542755
7.245039 45.929943 402.983002
7.300283 52.154659 398.074921
7.198148 49.970684 402.629120
7.316266 46.245586 398.857819
7.373644 45.655602 398.754913
7.357861 51.445351 402.223724
7.409273 48.626209 402.770142
7.448461 46.976303 402.898224
7.509880 54.121166 400.979523
7.523280 48.853893 398.770935
7.554941 47.571152 398.844543
7.588567 53.790894 396.969116
7.653094 49.990520 398.494415
7.609144 51.996792 401.860016
7.683666 52.985287 397.390717
7.600193 50.296619 402.305023
7.656012 53.607136 401.216125
7.706119 51.675671 398.032898
7.608846 49.554073 402.540985
7.635229 47.600315 402.730957
7.668044 52.963661 401.433441
7.787132 46.801407 398.673279
7.803627 48.369648 398.588715
7.819298 52.303242 397.630676
7.851772 51.056683 398.057159
7.830151 45.657349 402.424866
7.829987 50.857368 402.057983
7.834719 48.151417 402.526611
7.938677 49.096954 398.445770
8.006959 50.369061 398.154022
7.965560 49.110336 402.387360
8.124562 45.739643 398.404022
8.218643 51.774982 397.643494
8.225406 52.940491 397.101257
8.165285 46.716743 402.391113
8.253168 50.527447 401.846497
8.264629 51.892456 401.535797
8.312736 53.427132 400.733948
8.331598 51.223061 397.775116
8.293735 51.098804 401.752899
8.399524 46.375668 398.293060
8.405010 49.467537 397.962250
8.373023 48.628124 402.148499
8.488934 48.272781 398.151855
8.484549 52.524975 401.145355
8.536491 47.009304 398.265594
8.564910 50.631805 397.613617
8.512850 47.803856 401.978455
8.575740 45.891727 401.797089
8.550047 49.585232 401.820953
8.690452 51.942776 397.181091
8.742755 45.632862 397.998657
8.770737 53.835030 396.095337
8.773882 51.261341 397.358215
8.832355 53.100857 400.497162
8.830614 46.898109 401.650818
8.889077 49.901741 397.724823
8.865327 51.757374 401.041962
8.984519 52.799587 396.533569
8.994132 52.360271 400.735626
9.033423 47.205334 397.837006
9.055676 48.626148 397.843964
9.051234 48.964855 401.570557
9.149757 53.951912 395.583160
9.139228 46.178009 397.741028
9.104863 51.054989 401.053162
9.176137 53.300507 396.086304
9.148256 45.687492 401.057343
9.236662 51.583279 396.974091
9.236315 50.808346 397.226868
9.220759 48.047165 401.386749
9.296386 49.471519 397.373413
9.300539 47.328606 401.305542
9.368351 46.755913 397.578827
9.345359 50.369469 401.105896
9.408567 53.600800 399.662811
9.383595 46.212120 400.987885
9.390439 51.815651 400.603973
9.393593 48.236233 397.544067
9.414201 46.206043 397.253601
9.387424 49.434357 401.249023
9.513267 52.284908 400.283661
9.538680 51.892811 396.592010
9.535774 50.058338 397.276093
9.573375 54.093472 395.126923
9.579803 52.835346 395.998505
9.585872 45.560863 397.440765
9.569741 47.394779 397.543396
9.627520 53.512043 395.543213
9.632922 48.657978 401.069305
9.665564 51.238430 400.581024
9.680011 47.037045 400.833252
9.741936 46.363186 397.822998
9.770483 52.971218 399.692200
9.750721 50.003868 400.856537
9.780854 45.777752 400.201416
9.759711 47.873177 400.847870
9.819346 51.710049 400.216644
9.864938 53.780254 399.077881
9.852466 49.424694 400.762665
9.910994 50.296406 396.852234
9.946916 52.114784 396.188690
9.944233 46.878735 397.466522
9.947869 49.033169 396.998779
10.089672 52.459908 395.711670
10.093549 45.649052 398.480164
10.099946 53.822906 394.835541
10.076945 50.844265 396.568726
10.053577 48.827354 400.614227
10.072917 48.364479 397.099304
10.078761 47.344353 400.391510
10.089446 49.733391 397.005188
10.185277 53.285458 395.241455
10.194986 51.620899 396.065796
10.207994 46.704189 399.968353
10.222173 48.148796 400.387909
10.262412 52.178951 399.638733
10.276331 45.919014 399.012207
10.235279 47.804504 396.884613
10.252798 47.325729 397.225311
10.251597 48.870724 396.218658
10.304685 50.481316 400.126068
10.307685 49.384045 400.185028
10.334951 46.389317 399.402557
10.311756 48.336941 396.500854
10.362587 46.375553 397.702026
10.434622 46.147503 398.372589
10.492036 53.883404 398.393341
10.458655 47.141735 399.694855
10.465244 47.666679 399.933868
10.523270 52.075478 395.513733
10.553226 53.008312 398.844879
10.554043 46.993698 397.633881
10.539390 48.743908 400.175323
10.600760 52.758278 395.313873
10.580379 49.129421 396.599457
10.616213 51.359112 399.553467
10.612528 49.850891 396.534210
10.639474 46.918812 399.162476
10.637637 50.624332 396.221527
10.678214 46.722012 398.153290
10.840373 47.561852 399.207153
10.841129 48.769123 399.644226
10.868003 48.202908 399.359467
10.884010 47.178921 398.597137
10.871110 48.478951 396.898468
10.941752 53.991516 395.010834
10.896476 47.484982 397.416809
10.935198 51.264637 395.652313
10.930947 49.848801 399.468018
10.988297 51.950653 398.830566
11.034735 52.768444 398.379883
11.074829 53.946636 397.396057
11.080823 52.282887 395.446259
11.125939 53.420918 395.048218
11.107575 47.793171 398.010101
11.136304 51.392658 398.719818
11.142584 48.353024 398.853363
11.257071 50.143288 398.961395
11.284976 50.166180 396.422363
11.289833 50.833073 398.772064
11.296212 50.695793 396.114838
11.370516 54.020325 396.710907
11.301318 49.309772 396.678741
11.389681 52.834423 395.337952
11.395931 53.262478 397.479340
11.350324 48.698227 398.344727
11.367309 49.288097 398.764404
11.394504 48.584225 397.210907
11.418352 51.729916 398.300964
11.456376 51.607849 395.740570
11.455448 52.364758 398.014801
11.502928 53.934132 395.168793
11.552503 54.048653 395.992828
11.647353 53.220692 396.900238
11.609324 49.685524 397.866241
11.611343 49.112850 397.523560
11.698872 50.557961 398.002350
11.694901 49.668945 397.274750
11.715163 49.893063 396.160614
11.753963 51.502075 397.558441
11.822050 53.237190 396.176788
11.848760 50.473850 396.350952
11.903193 50.464630 397.205902
11.944243 51.186123 396.427704
11.997666 52.665417 395.395050
11.968813 51.533955 396.910706
11.989882 52.283497 396.550751
12.023279 51.947277 395.511627
-11.308124 45.318501 398.695801
-10.880325 44.794567 398.929413
-10.833033 44.882431 398.085052
-10.650306 45.036537 399.865417
-10.528068 44.405163 399.396912
-10.371405 45.140789 400.396332
-10.323973 43.932629 398.958191
-10.224001 44.173489 399.941620
-10.052541 44.597393 400.468231
-9.882883 44.959934 401.022308
-9.849074 44.684200 397.947693
-9.752480 45.291290 397.981781
-9.646117 43.381397 399.159821
-9.627375 43.481812 399.743530
-9.599194 43.698223 400.315765
-9.441392 43.702900 398.509003
-9.437802 44.286953 401.173065
-9.337867 43.195751 400.223022
-9.321689 42.974545 399.646881
-9.198068 43.034538 398.996979
-9.107708 43.540226 397.957825
-9.044847 44.773415 401.964905
-8.961505 43.147297 398.410248
-8.947923 43.015366 400.697876
-8.917813 42.552612 399.421326
-8.930155 44.613087 397.992035
-8.834219 42.590878 398.779449
-8.712433 44.228802 401.844696
-8.622972 42.310604 399.950623
-8.523930 42.782635 401.036316
-8.497043 44.917274 402.510468
